-0.109386 0.073850 1.722692
-1.283384 1.916187 5.915901
0.002396 -0.478639 5.112256
-0.286796 -0.139573 0.672736
2.664134 -0.128445 6.580937
-0.502736 0.376455 3.437928
-1.254472 1.970508 6.429297
-0.210481 0.288170 1.141877
0.205685 0.035278 3.829220
-0.028878 0.084227 2.509519
-0.120820 -0.041210 5.493218
-0.916849 1.584165 5.757654
-0.068142 0.174877 2.913788
0.143667 0.246303 5.517034
-0.148557 -0.130806 5.161938
3.140991 -0.096090 6.291220
-0.105224 -0.056388 4.804126
0.229656 0.076918 5.219067
-0.075474 -0.101876 5.070582
-0.100110 0.104893 2.771995
-0.287367 -0.732169 5.235031
0.835387 -0.150927 5.066920
1.453183 -0.074346 5.657497
-0.049505 -0.160539 0.966384
-1.228426 -2.331594 6.127467
-1.036817 1.848806 5.943968
2.778928 -0.309202 6.341025
-0.322289 -0.066250 2.961432
1.837819 -0.023354 5.618161
0.032682 0.421016 0.360648
-0.081383 0.113992 4.244294
-1.005663 -1.380478 5.616703
-1.338297 2.586634 6.396784
0.186288 -0.130860 3.776310
0.099597 -0.010189 1.232976
0.223594 -0.192400 3.049000
-1.068732 1.699317 6.199988
-0.867479 1.254608 5.856169
0.907641 0.093489 5.383045
3.151490 -0.074238 6.372008
0.728449 -0.075266 5.401080
-0.003077 0.083821 1.946933
-0.041005 0.246289 3.758888
-0.179688 0.281871 3.543287
-0.892611 2.015275 6.154840
-1.303006 2.139075 6.379730
-0.836807 -1.891848 5.882154
-1.745883 2.628372 6.335683
-0.709364 -0.954383 5.421285
0.993820 -0.137232 5.871995
-0.100254 0.088805 5.151141
0.291888 0.212289 5.101851
2.650449 0.016400 6.822634
-0.401331 0.016544 1.260138
-0.338491 0.237858 4.864450
-0.460273 -0.891767 5.417161
-1.402194 2.208932 6.346486
-1.037254 -2.182721 5.971029
-0.185807 -0.021996 3.735915
-1.519743 -1.883806 6.390863
-0.103726 -0.564307 4.912770
2.528103 0.192141 6.361533
0.081699 -0.041266 5.290590
-0.046293 -0.091344 0.006176
0.238962 -0.027931 2.707353
-0.861843 1.514700 6.019192
-0.542692 1.096807 5.911673
0.470516 0.055775 5.271335
-0.187955 -0.081529 1.666725
0.188056 0.022020 3.788659
0.435751 -0.286662 4.920943
-0.579455 -1.250031 5.533638
-0.634072 0.773035 5.448200
-0.017901 -0.286576 4.564226
0.007907 -0.300063 4.833775
1.994477 -0.009981 5.809309
-1.277658 1.942331 6.014697
-0.098745 0.001305 1.179414
0.155322 0.000212 2.753668
2.012836 -0.078116 6.185152
-1.503150 -2.295983 6.550488
-0.270718 -1.017191 5.162200
0.063742 -0.089747 2.567504
-0.261368 -0.388123 5.156134
-0.183012 -0.096818 5.840563
-0.306720 0.030718 4.987879
0.228980 0.027476 2.451018
1.362270 0.074281 5.621094
0.162041 -0.006836 2.728115
-0.144435 0.007795 4.398135
2.999056 0.337541 6.161020
-0.384078 -0.119508 4.796729
-0.003495 0.286519 3.930670
-1.044634 2.375140 6.310622
2.351306 0.072787 5.497995
0.041026 -0.119381 1.140042
1.169969 0.042172 5.797222
0.099246 0.024942 1.458451
-0.288775 -0.453556 5.338320
0.436849 0.316371 1.853755
-0.304920 -0.091116 3.890806
-0.950675 1.689627 5.728256
-1.574953 -2.409096 6.313267
-1.661797 -2.624973 6.938356
0.171194 -0.392444 2.484637
2.340465 0.165465 6.144654
-0.168548 -0.015056 2.790831
1.975075 -0.070829 5.784066
-0.014948 -0.205385 2.877849
0.010169 0.296840 2.485369
-1.181236 1.582040 5.908641
-0.344169 0.033637 4.243940
-0.992681 -1.566853 5.781783
2.358147 0.103006 5.930599
2.953613 0.090490 6.488744
0.322976 0.410898 5.059695
-0.811322 1.127628 5.790004
0.072602 -0.050666 5.172190
2.428978 -0.092754 6.507313
0.021100 -0.147571 3.736409
-0.311462 0.151815 5.252297
-1.158332 2.058593 6.222776
-0.650559 -0.852005 5.596605
-0.779410 -1.217254 5.807849
2.529629 -0.184553 6.488678
-0.567654 -1.495003 5.831970
-0.641086 1.460906 6.100316
0.100689 -0.010403 0.609061
2.186283 -0.171911 5.327696
-0.327923 -0.439110 5.089090
1.103555 0.015264 5.275893
-0.110274 -0.063025 5.347522
0.301290 -0.361905 4.843478
1.523483 0.112445 5.770084
0.110399 -0.272972 1.895027
0.124646 0.062595 3.926924
2.167698 -0.063512 6.237317
-0.826282 -1.726958 5.817756
-0.367820 -0.936244 5.420660
-0.067671 -0.221098 1.255199
-0.097330 0.165597 4.987536
1.090960 -0.426675 5.453500
0.143949 -0.048366 5.698886
1.760549 -0.278678 5.897527
1.359090 0.134293 5.552323
0.008359 -0.399663 5.438790
1.475439 0.162044 5.379565
1.055467 0.240993 5.509291
2.443137 -0.378136 6.345085
0.109230 0.305657 2.483225
-1.073816 -2.223396 6.035343
1.764337 0.191261 6.181791
-1.170523 2.381291 6.609925
3.038962 -0.299192 6.522065
0.476791 -0.042798 4.941846
-0.088662 -0.135772 1.302313
-0.135591 0.161919 1.524828
-1.048902 -2.060523 6.199437
-1.131445 -2.343714 6.170753
0.082582 -0.137856 1.792601
-0.023499 0.140074 3.689346
-1.201175 -2.056969 5.908997
2.551210 -0.435457 6.166678
-1.066617 1.119993 5.964195
0.562411 0.190331 5.305232
1.094113 -0.188830 5.718805
-1.479133 2.455843 6.333104
0.373470 -0.483374 2.578783
2.469239 0.006399 6.484706
-1.565950 -2.513104 6.626169
-1.617967 -1.999003 6.265220
0.453494 -0.151011 5.407675
0.252582 0.063232 2.478231
0.155034 -0.241556 1.524165
-0.227764 -0.490751 3.643360
-0.995640 -1.228808 5.717384
-0.157654 0.137144 1.764664
-0.266458 0.253941 4.591589
-0.061784 0.078848 2.928335
0.008481 0.014555 4.993648
-0.111398 -0.257748 5.016341
-1.567056 -2.370364 6.566976
-0.946521 1.826083 5.914030
-0.158152 0.325362 3.204554
-1.202409 2.325829 6.405309
0.213713 0.292377 5.625237
-0.022255 0.164969 3.094944
-0.105758 -0.192325 5.070329
-0.208516 0.142492 0.571346
-0.032290 0.457344 0.361888
0.003398 -0.060422 4.017644
1.500142 -0.065433 5.746139
1.850858 -0.003691 5.652508
-0.983021 -1.927655 5.910039
2.899049 0.201945 6.214007
-1.070384 -1.682990 5.902191
0.118786 0.255575 -0.126237
-0.230438 0.141720 3.742593
-0.249216 -0.409698 2.575992
-0.323907 -0.799560 5.325373
0.122477 -0.153960 4.287160
-0.483960 0.214291 3.781468
-0.831301 -1.266464 5.512758
-1.176211 2.577392 6.189129
1.742837 -0.540381 6.217464
0.374023 0.008529 4.115503
0.337321 0.315903 2.893594
0.273287 0.235118 3.080222
-0.268251 -0.019686 0.970187
-0.156900 0.351286 5.072687
-0.072335 -0.514033 5.460871
0.619990 0.136270 4.973704
0.135022 -0.075384 4.908333
0.007587 -0.027140 2.934564
-1.309143 2.183161 6.559810
0.102532 -0.151684 3.683818
0.300189 -0.323021 4.307901
-1.197019 2.392712 6.662254
-0.215697 -0.128237 5.328516
-1.018649 -2.443484 6.198120
-0.725503 1.144973 5.566145
-0.893559 1.236003 5.696479
0.191790 -0.209140 4.957609
1.239613 -0.214513 5.802500
-0.291672 0.090946 5.138424
2.466881 -0.063027 6.527144
-1.443009 2.867936 6.670803
-1.382470 -2.444895 6.432019
-0.150361 -0.207053 1.752408
0.247991 -0.183914 5.299641
-0.116824 0.142478 3.645116
-1.258987 -2.711933 6.948695
1.729506 -0.291861 5.844959
-1.362279 2.270736 6.534477
-0.185499 0.009525 3.120547
0.220163 -0.072814 3.871124
-0.287614 -1.031215 5.780463
0.062189 0.235448 0.785469
0.043594 -0.212691 0.717605
-0.076943 -0.291976 2.044095
2.465574 -0.039704 5.962094
0.021781 0.129622 1.635916
0.095638 0.227203 2.392126
-1.305701 -2.421000 6.513720
2.454587 -0.228472 5.979691
-0.270796 -0.334315 4.716729
0.601587 -0.053680 5.219153
-0.936089 -1.287699 5.578395
-0.874697 -1.616665 6.226726
1.613206 -0.141297 6.055474
-0.242598 0.060093 3.382375
-1.315404 2.536230 6.483652
2.913074 -0.283784 6.729531
-0.232852 0.050752 4.948045
-1.279460 2.164030 6.412252
-0.030260 0.106968 1.010785
0.090313 -0.165795 3.723470
-1.531325 -2.725941 6.456263
-0.125310 -0.192129 0.705319
-0.735127 1.972437 5.644661
2.426351 -0.021310 6.358916
-0.012590 -0.078982 0.998863
-1.631433 2.290558 6.415498
0.436330 -0.308708 6.005091
-1.381401 2.383771 6.243451
-0.406018 1.528803 5.580532
0.019461 0.104266 4.347523
0.054762 -0.197610 4.393510
-0.559044 -1.253734 5.880736
-1.089183 2.416427 6.299405
-0.058965 -0.282760 5.100580
0.221091 -0.073153 4.544846
-1.267743 -2.112180 6.379053
0.100185 0.199300 0.972502
0.127328 0.239048 2.728406
0.357325 -0.186450 4.808627
-0.975360 -2.081874 6.064778
-0.011760 -0.376801 1.264747
-1.054935 2.063533 6.254148
-0.058557 0.299770 5.046110
-0.062520 0.048099 4.423537
-1.472603 2.635361 6.679178
-0.659676 -0.999750 5.159688
-0.475119 -1.104832 5.552054
2.700706 -0.074545 6.153269
0.311627 0.159355 3.411373
0.796495 -0.040752 5.368918
-0.046646 0.308780 4.816210
-1.228116 2.466400 6.073563
-0.248642 -0.022851 3.927509
-1.881872 -2.707035 6.516084
-0.160187 -0.085899 5.193748
0.066557 -0.017878 1.523269
-0.981098 1.911683 5.840451
0.634095 -0.070205 5.297883
-1.266735 -2.283279 6.364033
-1.283241 2.691471 6.542661
2.275762 0.058003 6.036391
-1.319040 -2.356747 6.431401
-0.240062 -0.146638 4.855835
0.253240 0.393355 0.428754
-0.959559 -2.058900 6.536039
-1.458992 2.389071 6.277744
1.886028 -0.206853 6.164572
-1.387545 2.045016 6.119443
0.072085 0.446519 2.402706
2.611628 0.227613 6.796480
-0.887771 -1.532284 5.956949
-1.491030 2.173266 6.395258
0.463031 -0.145021 5.032911
-0.840292 -1.866811 6.020372
3.242729 0.111632 6.150942
-0.621408 -1.427966 5.562316
-0.260459 -0.189669 -0.144620
-1.201537 -2.294456 6.245187
1.309595 0.171666 5.818122
-0.147399 -0.001669 4.176360
-0.329612 -0.689065 5.680866
-0.440241 1.311550 5.641906
0.514285 0.295032 5.344468
-0.993000 1.793683 6.084861
-0.859729 1.684025 5.988059
3.001421 -0.258907 6.359772
-0.145042 -0.185124 1.971572
-0.680305 0.813159 5.526036
0.684461 0.002586 5.485137
-0.226089 0.177890 0.497376
-0.212723 0.297554 5.275797
0.396232 0.037266 1.893784
-1.250130 2.363014 6.020873
-0.150807 -0.667871 5.324419
-0.028529 0.352161 5.462594
2.825589 0.113660 6.052698
-0.493387 0.740988 5.345529
0.404791 0.002331 4.867841
-0.222657 0.636147 5.787314
-1.517130 -2.896980 6.732976
-0.796771 1.814898 5.939001
-1.250381 2.383526 6.466853
-0.019052 -0.043950 1.564805
-0.032459 0.012872 2.790232
-1.178754 2.645116 6.197811
-0.721739 -1.291802 6.012633
-0.014719 0.159045 0.630728
0.117230 0.297922 -0.132148
0.376220 0.200630 2.094869
2.106142 -0.162821 6.089114
-1.108582 1.560414 5.939879
-0.027650 -0.735789 5.342875
-0.304451 0.133555 5.518954
-0.264768 0.811616 5.253760
-0.305989 -0.112051 3.956060
-0.140430 0.186830 2.404154
-0.242200 0.011677 5.069230
-0.380634 -0.137158 4.029663
3.038527 0.099262 6.230736
-0.675709 0.793394 5.702051
-0.391713 -0.825823 5.785150
-0.006007 0.123086 3.162918
-0.648969 1.756525 5.832263
1.876232 -0.080904 6.070832
-0.350382 -0.566064 5.283592
-0.972508 -1.279859 5.720132
1.780669 0.119459 5.482443
0.083796 -0.031166 2.933703
-0.559634 0.573646 5.320039
-1.089101 -2.106977 6.489932
2.026973 0.048189 5.875419
-0.219104 0.130613 1.275042
1.184119 -0.278377 5.553726
0.160341 -0.059939 5.117992
0.383611 0.204602 1.740784
-1.460222 2.473305 6.741285
-0.871336 1.728819 6.007925
2.102923 0.174241 5.799029
-0.488580 -0.337240 5.400765
-0.881270 1.286999 6.029367
-0.001321 -0.024023 4.981548
0.106489 -0.040092 4.281518
-0.064560 0.144144 1.621896
-0.187742 0.213818 2.063413
-1.283549 1.889943 6.287732
0.149474 0.145335 5.420533
-0.524275 -1.295191 6.127122
-1.619076 2.487096 6.339927
-0.164950 0.005066 0.060283
0.051623 0.012612 5.048770
-0.071207 -0.132232 5.128014
1.046405 0.217166 5.505379
-0.172248 -0.628097 5.414973
-1.139148 -1.777349 5.841679
0.555749 0.082847 5.135814
-0.635558 1.268945 5.319216
-0.503892 -0.568857 5.478080
-0.318022 -0.150912 1.166493
1.582954 0.230122 5.871344
1.256187 0.346303 5.918177
0.169149 0.104631 0.114956
-0.160272 -0.094604 2.117473
0.380434 0.140361 3.437988
2.203840 0.230337 6.526195
-0.883346 -0.773443 5.633540
1.020398 0.106607 5.791957
-1.280383 -1.825452 6.117313
-0.188392 0.034010 2.232691
-0.331478 1.167463 5.463853
-1.053996 -1.969361 5.894743
-0.307065 -0.369547 5.005014
-0.188363 0.057839 4.664560
0.015732 -0.195204 1.289625
-0.115530 0.432472 3.231369
0.084202 -0.044780 0.716963
0.446037 -0.026809 5.149412
-1.159960 -2.082526 6.027334
0.013802 -0.059544 0.620851
0.005317 -0.110188 5.215166
-0.447370 0.033938 3.832275
-1.792136 -2.088258 6.272837
1.384827 0.050374 5.334565
-0.713468 1.363841 5.573391
-0.720367 1.234677 5.610785
-0.529507 0.918706 5.704077
-1.276439 2.436589 5.993618
-0.068043 0.067729 2.263612
0.067178 0.299273 4.992961
-0.054553 -0.153518 2.087118
0.013710 0.010102 2.695058
-0.910703 -2.251419 5.656742
-0.966710 -2.166145 6.029718
0.088023 -0.064068 2.029821
0.352630 -0.005646 5.373757
-0.010366 -0.164300 0.860198
0.072516 0.096923 5.072036
0.444441 -0.064486 5.168227
-0.962458 1.401711 5.893741
-1.483238 -2.487399 6.332784
-0.106715 0.090805 0.071237
0.172229 0.449604 4.793335
-1.299609 -1.445252 5.727654
-1.009435 1.793074 6.110435
0.013148 -0.024511 2.647449
-1.410413 2.547868 6.639945
0.074340 -0.295600 1.871680
0.022454 -0.123116 1.154455
-0.561112 -0.799393 5.217491
-1.449274 -2.520183 5.802486
-0.649711 -1.441364 5.980777
-0.073879 -0.747129 5.478632
0.256739 -0.204354 3.787612
0.019984 -0.209679 5.257197
-0.287937 -0.863265 5.299083
-0.008272 0.359688 3.857001
-1.096509 -1.778132 6.246752
-0.484185 -1.081095 5.481149
-0.405114 -0.048743 5.294360
-0.953544 1.128753 5.669261
-0.400664 -0.046647 0.606906
-0.844231 1.322299 5.592008
-0.818719 1.320656 5.951744
0.146691 -0.378566 2.189651
0.214245 -0.145240 1.325541
-0.514807 -0.144139 3.310030
0.342764 -0.043807 4.052514
-1.351734 -1.845764 6.143377
1.307799 -0.022661 5.673644
-0.186465 -0.119009 5.610637
0.406940 -0.318529 5.102301
2.027469 -0.379167 6.171800
-0.917236 -1.195706 5.518863
-0.155111 0.101864 3.478889
0.643531 -0.390263 5.520662
-1.166107 1.639794 5.793475
0.188268 0.052563 3.291406
-0.543450 0.077732 5.023388
-0.383203 0.705245 5.360478
-0.135100 -0.369183 5.544142
2.504241 0.082199 6.221124
-0.138054 -0.037927 4.803322
-1.592463 2.693105 6.455277
0.023407 -0.055624 0.256608
-0.547464 0.637495 5.056443
-0.227610 0.135346 1.717452
-0.188163 0.483418 0.514087
-1.365135 -1.830813 5.827875
0.333451 0.202177 1.602771
-0.708996 -1.298764 5.535357
0.163638 -0.098722 0.362349
-0.612038 1.101377 5.693957
-0.064746 0.203493 4.982303
0.443758 -0.195525 4.934418
0.012045 -0.032936 2.120878
1.395445 0.062095 6.066324
-1.032609 1.488988 6.057666
1.118929 -0.179048 5.381544
-0.548654 -1.188170 5.610402
-0.268855 0.046715 0.280733
-0.111339 -0.497147 0.501228
0.059582 0.148632 4.609521
-0.804615 1.628805 5.832712
-0.616350 -1.269147 5.559113
0.031260 0.125404 5.143276
-0.008115 0.298664 4.809857
2.923453 0.237282 6.099460
0.096037 0.076618 0.213802
0.057799 0.084692 2.606098
-1.549821 2.612749 6.297320
-0.334418 0.822416 5.796343
0.013141 -0.321811 0.147210
3.014262 -0.100810 6.497708
0.065698 0.319728 3.152674
-0.176769 -0.000431 4.527464
-0.060332 -0.051529 4.784403
0.052013 -0.314057 2.079144
-0.251918 0.454645 5.222961
-0.189534 -0.706652 5.448098
-1.200702 1.718392 6.049821
-1.544671 -2.588394 6.353531
-0.113183 0.032574 3.694097
-0.387715 -1.596722 5.700746
3.136286 -0.145539 6.467024
-0.052574 -0.198718 0.950810
1.149279 0.167556 5.738292
1.179971 -0.017500 5.392209
0.236721 0.004052 2.680278
-0.564354 1.685388 5.916059
1.947782 -0.142596 5.968746
2.135932 -0.017928 6.155197
0.206206 0.299538 3.020878
-0.770405 1.774408 5.907327
-0.710744 1.119213 5.462668
-0.234226 0.775395 5.350613
0.066750 0.060690 5.296350
1.945980 0.289142 6.137351
1.490911 0.169620 5.595312
0.371313 -0.002949 5.116300
-0.936978 1.964368 6.145526
-0.953443 1.937875 6.097035
0.850223 0.026512 5.541093
0.180619 0.091109 3.114452
-1.011759 -2.199108 6.017238
-0.318355 -0.701335 5.486504
0.091906 0.616488 5.027079
0.178591 0.004596 1.293384
-1.728236 -2.596065 6.323023
-0.659805 -1.690220 5.806531
0.304932 -0.052444 3.637709
-0.557437 0.958974 5.617894
-0.804849 -1.710747 6.230792
0.170065 -0.060999 3.782420
-0.250772 -0.019077 2.295569
-1.332952 1.839015 5.964483
-0.595700 0.897218 5.270373
0.041200 -0.341968 0.741248
-0.113515 0.036041 3.443906
-1.452255 2.633625 6.491124
2.170891 0.216783 6.030958
3.173145 -0.101853 6.024940
-0.331906 0.483268 5.166032
-0.386320 -0.019408 5.236099
-1.408765 -2.375237 6.303878
-0.519095 1.517006 5.600775
0.036518 -0.306256 5.252711
0.540618 -0.658970 1.524082
0.342957 0.231174 5.321854
-0.002448 0.118638 5.114841
-0.043462 0.088079 0.807051
-0.773057 -0.885680 5.609424
0.041982 -0.020520 0.384149
-0.991021 -1.719339 6.140108
0.187563 0.226243 3.879394
0.116709 -0.096910 4.996744
0.987580 0.150663 5.105461
-0.656153 -0.058759 5.211555
-1.508338 2.496385 6.363063
-1.063161 -2.498819 6.550232
-1.512675 2.846391 6.590255
0.086249 -0.062568 4.332599
-0.087022 0.062800 0.025560
2.550617 -0.192490 6.030001
-1.174382 -2.265013 5.791917
-1.493506 2.477394 6.366861
-0.504279 0.246014 4.963817
2.734801 0.237999 6.166324
-0.362502 -0.882088 5.707325
-0.435950 -0.372272 5.293338
0.973910 -0.069609 5.254208
2.381509 -0.491883 6.349142
-1.396577 2.424879 6.013053
2.182158 -0.186035 5.955407
-0.585615 -1.473985 5.653044
0.991035 -0.114496 5.398729
0.338822 -0.161388 4.974285
-0.399711 -0.267224 5.155630
-0.586447 0.871048 5.417451
-0.872202 -0.975182 6.026831
0.329170 0.043572 4.212746
-1.199049 2.020683 6.311114
-0.307021 0.011143 3.235809
-0.435627 -0.367201 5.228664
-0.149770 -0.579653 5.636860
-0.076095 -0.602555 5.131989
2.196946 0.159530 6.229610
0.944394 0.428176 5.626306
-1.722660 2.718025 6.633975
-0.845231 -1.035713 5.557529
-0.276006 -0.216696 2.689439
0.340373 0.102992 5.210648
-0.052284 -0.298833 1.970483
2.216086 0.188069 6.052997
-0.473535 0.220401 3.022873
-0.004672 0.082652 0.451430
0.060725 0.209269 4.441992
3.234277 0.015502 6.498945
1.566454 0.430251 5.448055
1.335326 0.055342 5.729402
-0.139156 -0.142174 1.452109
-0.266263 -0.887432 4.729349
2.025814 0.159606 5.849282
-0.044799 -0.341063 0.726834
2.167219 0.148702 6.024226
0.289474 -0.268966 2.769629
-1.850584 2.898584 6.559827
-0.012732 0.299738 3.497448
-0.895026 -1.542550 6.248183
-0.396460 -1.286945 5.365776
-0.317647 -1.443057 5.530408
0.091645 -0.140747 3.364266
0.060763 0.015076 4.074609
1.260924 -0.032519 5.494578
-0.034366 -0.040656 4.816225
0.166853 0.111756 1.252030
-0.261096 0.032695 5.279538
2.800890 -0.035601 6.528916
0.385805 0.088835 0.596226
-0.122547 -0.076605 2.614362
-1.317111 2.315098 6.170779
-0.049821 -0.293400 4.098536
1.281904 0.096582 5.797392
-0.182977 -0.024108 5.188283
-1.024652 -2.119268 5.819667
0.261656 -0.197508 4.717268
-0.020588 -0.211823 2.079039
-0.224699 0.075576 5.030482
0.149685 -0.167263 -0.300326
0.104619 0.044880 0.605744
-1.104374 -2.107576 6.648254
-0.070682 0.027301 5.186938
-0.515494 -1.196972 5.408011
1.386369 0.065444 5.893279
-0.102942 -0.473916 2.708615
-0.361870 0.844234 5.520254
0.041251 -0.008559 5.035476
0.617197 -0.060012 5.211514
0.320570 -0.095326 5.554975
-0.200943 -0.149454 4.258987
0.095581 0.207155 0.289104
-1.277402 -2.414529 6.341761
-1.458837 -2.447878 6.460685
-0.575232 1.019884 5.241071
0.689830 -0.095886 5.339109
-0.255805 -0.236017 1.010640
0.052277 0.208805 4.758576
-0.581784 -0.654959 5.053629
-1.103109 2.148675 6.448819
-1.449118 -2.108178 6.353743
0.906221 0.024149 5.526156
-0.473172 -1.603404 5.676331
-0.515182 -0.801941 5.525000
-0.227247 -0.132740 3.488091
-1.342030 -2.657902 6.811233
-0.116164 0.114861 3.243764
-0.222375 -0.494459 1.825186
0.256129 -0.048126 1.720411
-0.012229 -0.308853 3.439780
-0.229778 -0.080984 4.787152
0.952577 -0.108789 5.417989
-0.667963 -0.642239 5.440985
0.794271 -0.190542 5.399452
0.154844 -0.363849 1.070833
-0.239217 -1.181487 5.927674
0.001215 0.290911 1.241152
0.228425 0.086898 1.936922
-0.165246 -0.122184 1.689593
2.494478 0.278420 6.353995
0.132679 0.068985 2.288806
-0.049599 -0.010665 4.406524
-0.167667 0.405006 5.181552
-0.177025 -0.001047 0.328593
-0.195061 -0.725793 5.095939
-0.035858 -0.108113 2.591927
-0.485946 0.711106 5.657530
-0.856868 1.753733 5.968531
-1.110482 1.941928 5.943936
-0.862724 -2.055849 6.090924
2.562699 0.175657 6.160598
-0.755036 0.624650 5.351113
-0.113622 0.103222 3.524869
0.522422 0.281074 4.876112
-1.243480 2.315598 6.066691
-0.188713 0.157353 1.487244
-0.061285 -0.027170 1.957841
0.037331 -0.003402 2.565217
2.135574 -0.194730 5.933629
0.523820 -0.017823 4.686518
1.243657 0.208566 5.297577
-0.532416 -0.170948 0.862998
-0.683996 -1.471632 6.396891
1.545887 0.142492 5.648107
0.104081 0.406020 3.255174
-0.398566 0.938711 5.644817
-0.881765 -2.012716 6.199440
3.075757 0.041695 6.379190
-0.800083 1.515019 6.026115
0.018423 -0.009633 1.323439
2.972045 0.052642 6.327269
0.308129 0.225022 1.179298
0.155043 0.070655 5.062709
-0.475650 -0.598131 5.520316
2.380403 -0.332463 6.163811
-0.920266 1.195066 5.599099
-0.397365 -0.627883 5.296955
-0.154934 -0.242362 4.302868
2.607851 0.135592 6.082686
0.052215 -0.312757 3.481917
-0.012562 -0.047414 3.787131
-0.147504 0.064440 3.234979
-0.633340 -2.002394 6.011495
1.615415 0.173172 5.662975
-0.910485 -1.457525 5.778806
2.441167 -0.033720 6.382316
1.642409 -0.055489 5.415554
0.612769 -0.001844 4.915665
2.797934 0.279735 6.373431
0.845539 -0.051579 5.768639
-1.423782 -2.152487 6.268511
0.138771 0.005428 0.086478
2.397868 0.107987 5.981148
0.669895 -0.106500 5.213908
0.039077 -0.104818 2.582401
-0.506168 1.682673 5.978466
-1.106870 -2.458604 6.454304
-0.199678 -0.063881 4.641160
-0.624641 -1.082883 5.887990
0.025216 -0.113082 4.924939
0.000020 -0.341654 0.765214
-0.264399 -0.224543 1.410286
-0.126000 0.004958 -0.099918
-0.128965 0.451522 5.264361
-0.446787 1.475313 6.058939
-1.099011 -2.043581 6.350732
-1.306391 2.174766 6.017161
-0.176652 -0.073689 2.677563
0.185834 -0.085786 0.320887
-0.040649 0.094519 4.855404
-0.088199 0.456829 4.290530
-0.473305 -0.521854 5.285855
-0.930693 -1.585844 5.939395
2.897572 -0.095180 6.090034
0.348625 0.008369 5.397043
-0.432958 -0.037890 5.312044
-0.206730 -0.418177 0.915469
-0.188727 0.237316 3.490955
-1.202411 -2.334675 6.198415
-0.077000 0.192925 4.920477
-0.060888 -0.659770 5.209702
-0.870701 -1.211185 5.298615
0.169092 0.038369 3.271234
0.126970 -0.287687 1.870044
-0.459221 0.308539 4.985522
0.567690 -0.239687 5.446758
-0.026063 0.108411 1.390475
2.300140 0.147338 6.108915
-0.985417 -1.686526 5.798149
-1.274953 2.058885 5.980291
2.440833 -0.035692 6.106556
-0.045392 -0.122452 4.952358
-0.249879 -0.029066 1.194212
-0.761166 -1.430646 6.065142
0.158961 -0.176336 2.076588
-1.007045 1.750959 5.670738
1.611446 0.244623 5.849485
-0.289877 -0.165829 1.449036
1.489537 0.218135 5.693502
0.408014 -0.170094 0.936648
-1.319364 2.225700 6.270130
-0.862006 -1.165601 5.679441
0.642567 -0.052775 5.037662
-0.937844 -1.247037 5.849992
-0.548676 1.682322 5.417864
-0.014720 -0.041296 3.156965
-0.116814 0.071279 4.980909
2.233212 0.195295 6.742615
-0.268452 1.042413 5.433175
-0.057859 0.067590 4.998255
-0.016611 0.191987 1.749011
-0.965428 1.397443 5.808841
0.087880 0.058542 2.994311
-0.070153 -0.092901 2.128382
-1.003805 1.459929 6.062582
-1.025842 -1.955970 6.434612
0.215961 -0.409809 4.395975
0.327238 0.247184 5.008658
0.324258 -0.219582 5.339701
1.265324 0.476275 5.560768
-0.831189 -1.067773 5.360945
-0.393713 0.507761 4.986650
-0.192498 -0.316079 5.708780
0.145867 -0.253039 2.828870
-0.056934 0.076981 4.117812
-1.608161 -1.935334 6.312751
-1.227194 2.375924 6.130181
-0.225450 -0.068255 5.101747
0.442996 0.162497 4.970080
-0.031032 -0.109117 0.665724
-1.097549 1.275705 5.917645
1.280057 -0.085370 5.622795
-0.924706 1.354114 5.452160
2.381828 0.190132 6.015225
-1.356863 -2.858855 6.533741
1.131296 -0.251466 5.549649
-1.262245 2.468351 6.233258
-0.193074 -0.043584 4.871795
-0.885127 1.964942 6.379333
-1.013691 -1.738122 6.202560
-0.046618 0.144798 3.254736
-0.150369 0.144029 1.304582
-0.567567 -0.758322 5.548218
-0.664206 -0.928380 5.604142
-1.030255 2.114673 6.267738
-0.146658 -0.162700 1.539193
-1.880322 2.389748 6.878133
-0.181627 -0.805798 5.763337
-0.148885 0.682786 5.218986
0.058789 0.046450 1.867357
-1.425646 -2.216573 6.156022
2.399974 0.325814 6.227719
-1.074863 -2.306877 6.393471
-0.025382 0.270251 4.112989
-0.751829 -1.106290 6.126891
0.400358 -0.382048 4.373937
0.494078 0.059000 5.195653
-1.243816 -2.133313 6.161971
-0.424385 0.544500 5.388029
0.033911 -0.080695 0.155517
1.452072 -0.014336 5.472650
-0.056137 0.171671 4.762275
-0.419484 -0.167654 5.258802
1.316947 -0.129996 5.875945
1.332797 -0.160094 5.915062
1.886392 -0.511405 6.274350
1.837395 0.067027 5.827102
-0.253221 -0.157313 1.667156
-1.634929 -2.853352 6.466737
-0.316626 -0.544068 5.738815
1.001346 0.006228 5.161689
-1.226330 -2.714603 6.598811
-0.087763 -0.062799 2.600549
-0.933334 1.373113 6.048448
-0.211295 -0.815759 5.317960
1.885209 0.089084 6.421312
-0.439000 -1.039978 5.635054
-0.573749 -1.831691 5.698739
0.035998 -0.013677 2.153846
-0.855547 -0.937196 6.038078
0.495858 -0.209689 5.066088
-0.707053 0.760306 5.148822
-0.294650 0.046670 0.102568
0.315645 -0.015175 5.061066
1.613064 0.089903 5.657740
-0.608708 1.442667 5.734619
2.185042 0.082492 6.448701
0.001053 0.294087 1.284404
-1.053459 1.985220 6.226452
-1.829665 2.828898 6.512229
0.537065 0.151224 5.334977
2.666892 -0.069195 6.122250
2.600865 -0.150771 6.335310
-0.690421 0.911391 5.603252
-0.176335 -0.205574 4.968493
0.421217 -0.262983 5.560246
1.182421 0.077221 5.427964
-0.906409 0.996398 5.593012
-1.515540 2.524604 6.464294
-1.439650 2.164006 6.421628
0.287527 0.086117 3.862920
-0.131173 0.053431 4.882570
-0.399218 -0.033758 3.670985
-0.604895 0.782665 5.389277
0.010818 0.196766 2.076413
0.155956 -0.189275 1.779777
0.041223 -0.092358 4.865037
-0.186471 -0.014666 0.894769
-0.027970 -0.588707 -0.029494
-0.681754 0.919859 5.400426
-0.363626 0.043300 0.759714
-0.875219 -1.669508 5.977946
0.475246 -0.008609 4.373144
2.377528 -0.006322 6.584717
-0.913364 -1.574702 6.028171
-1.397562 -2.238885 6.569206
-0.386399 -0.500921 5.537013
-0.877853 0.602131 5.115671
-0.060316 -0.138791 5.041617
-0.182701 0.753050 5.417243
0.591743 0.072606 5.352321
-0.092692 -0.585299 5.485031
1.804717 0.192590 5.810255
-0.662374 0.890970 5.333564
-1.419171 -2.204023 6.341283
-0.256967 0.716614 5.409313
-1.508870 -2.974399 6.430125
-0.718501 -1.920543 6.255079
0.748206 -0.127847 5.398427
0.162420 -0.528913 1.927314
2.368569 -0.018911 5.939916
-0.087746 0.218572 1.101230
1.621731 -0.068651 6.199344
-0.713928 -0.548097 5.413185
-0.691052 -0.214664 4.939304
-1.392328 -1.646423 6.005056
-0.774365 -0.850169 5.715959
0.072481 0.169895 1.739570
-0.437928 -0.375644 5.213153
0.186747 -0.065449 1.193070
-0.023330 -0.058940 1.068147
-0.189016 -0.065414 0.279394
-0.149911 -0.816736 5.335789
0.788699 -0.389360 5.796883
2.442760 0.225143 5.943973
1.489570 0.300438 5.654391
-1.353393 2.267827 6.397871
-0.876071 1.973477 6.165944
2.634291 0.108705 6.528323
-0.865509 -1.580966 5.671373
1.761557 -0.180304 5.887926
-1.121208 -1.920343 6.240365
-0.324691 -0.449402 5.250488
-0.269473 0.034567 2.528653
-0.279492 0.989701 5.598426
0.063524 0.149079 2.701874
0.072864 -0.134937 1.443013
2.371744 0.106623 5.892334
-0.136552 0.694919 5.317422
-1.297493 -2.539491 6.422407
-0.131678 -0.136601 5.121714
1.675035 0.136384 5.821601
2.944108 -0.133510 6.471158
-0.066578 -0.070724 1.606616
0.141019 0.180467 0.446723
0.333538 -0.100836 5.140202
-0.223943 0.499054 4.871743
-1.526963 -2.374961 6.275389
-0.858744 -1.053588 5.987850
-0.277077 -0.081085 4.126526
-0.244584 0.053487 1.429801
2.526789 0.328843 6.206683
0.022162 -0.527710 5.176208
-0.086103 -0.117228 1.434879
1.080715 0.246850 5.449931
0.252312 -0.015336 3.740411
0.012321 0.067077 2.156226
-1.295544 -2.046702 6.012058
-0.396328 0.998937 5.524215
-1.603021 2.216517 6.314296
2.475525 0.014535 6.076027
0.159414 0.320893 3.023338
-1.614722 2.519629 6.561037
2.357832 0.135304 6.202985
1.912369 -0.208076 5.776726
-1.001734 -1.706974 5.960942
-1.009968 1.921673 6.032638
-0.045803 0.141768 1.066804
-0.305261 0.675140 5.617548
0.473682 0.079378 5.236788
0.543461 0.122818 5.617714
-0.699450 0.366557 5.239133
-0.424361 -1.104549 5.358878
-1.238601 -2.185082 6.123072
-0.165085 0.153647 5.197575
0.494443 -0.018058 2.101256
-0.070575 0.042410 3.979118
0.014759 0.099291 3.189481
-1.104931 1.636581 5.878449
-1.658283 2.566897 6.814036
-1.047356 1.503902 5.492521
0.362458 0.087001 2.673481
0.102935 -0.077045 1.944413
-1.457906 -2.402187 5.987753
2.175749 -0.164664 6.047951
-0.593472 0.373611 5.210261
0.041393 0.050006 5.632585
-0.773128 1.295758 5.780257
-1.350500 2.147492 6.167153
-0.265709 -0.064250 4.979572
-0.271202 0.044655 3.132918
-0.562201 -0.356544 5.080882
-1.383115 -2.583833 6.941658
-0.769702 1.380523 5.646840
2.526868 -0.029395 5.821190
0.190878 -0.046131 4.049545
-0.265502 -0.023380 4.170639
0.018848 0.158731 3.167014
0.283250 0.120604 3.742887
-0.300394 0.430518 5.394917
-0.525276 -1.567277 5.712723
-1.038022 -1.349095 6.202216
-0.698813 -2.085325 6.322534
0.322178 -0.023403 0.076866
1.242065 0.255677 5.407113
-0.940364 1.817837 6.084198
-1.064557 -2.141241 6.024014
-0.446266 0.586417 5.571411
-1.232997 2.266478 6.019028
0.019166 -0.253833 5.226658
-0.874857 1.965590 6.091479
-0.418303 -0.612892 5.351933
-1.323882 -2.485993 6.211537
-1.587130 2.554597 6.342002
-0.076357 0.744893 5.421232
-0.079354 0.190975 5.345056
0.668781 -0.177378 5.315484
2.043095 0.246041 6.064271
-0.003709 0.072329 1.352769
-0.590552 1.178572 5.633062
-0.841231 1.356997 6.149215
-1.184455 -2.872310 6.493335
-0.907063 1.631988 5.904558
-1.015872 -1.289232 5.835986
-1.212653 1.434987 6.010876
0.164669 0.208639 4.863822
1.677647 -0.221734 5.955704
-0.040372 0.225365 4.934520
0.186622 0.320330 3.112992
-0.962801 1.180309 6.117457
1.812281 -0.099626 6.108443
-0.415769 0.480417 0.976043
0.126937 0.210797 5.159357
-0.854169 -1.096422 5.497423
-0.905085 0.523898 5.516833
0.151092 0.436438 3.693825
-0.568916 -0.766157 5.430038
0.229265 -0.165186 3.130519
0.599082 0.133022 5.344772
-0.947898 1.251416 5.294915
-0.047956 0.090767 2.688391
-0.663460 -1.049280 5.291496
-0.684721 -1.363842 6.243676
0.155639 0.354048 4.915673
0.889072 0.337888 5.504903
0.070290 -0.351599 0.068516
0.111320 0.037762 2.283385
-1.310857 2.016338 6.321534
2.996774 0.036470 6.061105
1.996966 -0.364311 5.962459
-0.401698 -0.461574 5.037642
-0.198582 0.179446 4.899517
-0.656878 0.862020 5.068368
0.077520 -0.076200 2.607366
0.019754 -0.019003 3.893311
-0.271023 -0.449298 0.376340
0.123064 0.043751 4.793499
-0.491297 1.218907 5.609353
2.650772 0.108330 6.363902
-0.749993 1.255573 6.160037
-0.471684 0.440819 5.555403
1.723849 0.002875 5.678690
-0.599740 -1.158366 5.332863
-1.469504 2.419153 6.117690
-0.149657 0.346620 2.454438
-0.111710 0.106490 1.914934
-0.451598 0.270287 5.318307
2.160706 0.122817 6.142090
1.449691 0.078522 5.797314
0.087369 -0.037698 3.059117
-1.359519 -2.156853 6.083603
-0.334134 0.538200 5.227992
0.735666 0.507532 5.425652
2.558981 -0.270559 6.212466
-0.049839 -0.381124 3.269933
-0.164025 -0.100940 4.977681
-1.183669 2.156470 6.344191
1.898336 0.127514 6.232095
-1.083298 1.797639 6.017978
1.358183 -0.059772 5.446819
0.029781 0.187939 2.381458
-0.147631 0.569238 5.157469
-0.168789 -0.191497 3.458804
-1.514104 2.220272 6.274511
0.195263 0.252207 0.122192
2.460453 -0.020565 6.242856
-0.893884 -0.601595 5.370759
-0.251880 -0.979813 5.670364
0.328293 -0.183674 5.276452
-0.015374 -0.317897 0.489353
-0.683342 -1.358275 5.973610
-1.138933 1.522566 6.228836
-0.825855 -1.337489 5.845108
-0.823796 -1.484485 5.495189
-0.688829 -0.876447 5.400794
-0.207477 -0.974248 5.508019
1.391644 -0.376774 5.894935
0.070815 -0.859442 5.637296
-0.136419 0.090494 1.506550
1.256606 0.194983 5.967684
-0.031738 -0.790406 5.152326
-1.710510 -2.712579 6.577063
0.011826 -0.356319 2.856093
-0.231331 -0.132214 1.352415
-0.212819 -0.301493 5.181030
-0.755087 -1.541022 5.986140
0.137557 0.401437 3.977120
-0.243492 0.225607 0.167633
2.527531 -0.060301 6.024848
0.095919 -0.104435 5.029755
-1.219596 -2.008872 5.884961
-0.940547 1.401254 6.043862
0.143314 -0.302309 3.252441
0.139585 -0.364322 5.297269
-0.845247 1.093274 5.683925
2.831590 -0.285473 6.334992
0.470902 0.018279 5.285615
0.148354 -0.446034 4.280128
-1.598238 -2.613764 6.391289
-0.246585 -0.128013 -0.037410
-0.922016 1.468741 6.014915
-0.901554 -2.008927 6.321899
0.189159 -0.057329 5.211807
-0.225299 0.361637 5.089250
-1.325376 -2.844970 6.262515
-1.757648 -2.452373 6.473061
-0.414191 -0.208773 0.904015
-1.114439 -1.172548 5.883350
-0.376559 1.167181 5.345294
-0.219452 0.703516 5.513679
2.054300 0.097874 6.104495
0.688147 -0.104341 5.477738
-0.178221 0.038989 0.580953
1.733701 -0.038879 6.013506
-0.759842 1.860563 5.630228
0.555682 0.106000 5.617688
1.198640 -0.288081 5.657006
3.158824 -0.112051 6.710875
1.324703 0.247014 5.661718
0.061136 0.119091 0.181157
0.212726 -0.053351 5.025890
-0.956736 1.151886 5.577657
0.815706 -0.122710 5.782580
0.900204 0.141951 5.408594
0.051898 0.003398 4.068158
-0.109458 -0.132531 5.161287
-0.236542 -0.408683 3.997499
2.394754 0.087886 6.046281
0.207406 -0.075057 3.345775
-1.596025 -2.642767 6.059018
-1.820437 -2.368038 6.656565
-0.568577 1.409996 5.843310
1.237411 -0.175782 5.401065
0.134416 0.210370 -0.192717
-1.159823 2.058357 6.423541
2.951471 0.238252 6.715051
-1.309756 -2.572262 6.488657
-0.031586 -0.024769 1.028983
-0.171449 -0.052534 5.104237
0.023383 0.430316 0.300486
3.130458 0.136248 6.618909
-0.698582 -0.295090 5.255676
0.941672 -0.100076 5.499739
-1.604706 -2.090464 6.070682
2.428023 0.147294 6.299899
-1.101460 -2.016009 5.897623
0.279192 -0.106881 3.209240
0.078752 0.143034 5.197902
-1.298892 2.602148 6.334573
-1.555023 -2.662572 6.750089
-0.083433 -0.073264 2.123672
1.294854 -0.131960 5.715274
0.222503 0.344767 2.469166
-0.115617 -0.132026 1.609930
-0.721962 -1.301968 5.895939
-0.953719 2.137115 5.824165
-1.049394 1.249628 6.092374
0.149206 -0.136755 0.186544
-1.370682 -1.710912 6.332341
-1.396448 -2.625697 6.389060
2.637159 -0.036151 6.590756
0.267149 0.180919 3.127254
1.504641 -0.000456 5.684194
0.147543 -0.243809 2.404301
1.212684 0.072284 5.212343
-0.031708 -0.083768 0.172736
2.530831 -0.004592 6.123745
-0.987611 -1.937783 6.079971
-0.317674 -0.067334 0.260749
-1.382354 -2.587993 6.230158
0.461418 -0.324165 4.900288
-0.604052 1.187667 5.967751
1.082021 -0.049565 5.342699
0.008652 -0.136898 3.600681
-1.046606 1.669023 6.185109
0.333432 0.095909 5.028208
0.889190 -0.081178 5.713366
-0.241023 -0.764985 5.309539
-0.897363 1.706474 6.202021
1.467277 0.335239 5.516358
1.553243 0.068214 5.875934
-0.198442 0.100785 2.850724
1.118944 -0.029201 5.501673
0.428549 -0.129596 5.277862
1.167147 0.259981 6.019430
-0.572237 -0.606192 5.267712
-0.523415 -1.154006 5.640567
-1.298258 2.261783 6.713439
-0.488759 -1.427991 5.828137
0.099284 0.020281 3.544638
-1.783195 2.441002 6.711209
3.269890 -0.145531 6.600492
-0.383193 -0.162501 0.984759
0.935204 -0.085066 5.632921
-0.403625 0.622134 5.508469
-0.049348 0.332501 5.332841
-0.345601 -0.651153 5.197320
-1.396706 -2.476446 6.056758
-0.822140 -1.167284 5.749891
-0.091388 0.049063 4.954658
2.101798 0.134015 6.165213
-0.227781 -0.291948 5.031441
-0.504637 0.298570 5.375225
-0.071980 0.113683 3.531584
-0.097868 -0.219203 4.027444
-0.794054 -1.442715 5.705475
-0.596233 -1.070442 5.748687
0.170942 -0.049870 4.825929
0.290864 -0.155694 -0.081021
0.165486 -0.179500 0.779108
-0.039388 0.433040 2.362839
-0.049399 0.750400 5.177926
-0.512148 -0.331541 5.333094
0.110185 0.023663 5.139802
-0.332372 -0.503525 5.274615
-0.748020 -1.893673 6.044322
0.080700 -0.014716 4.369351
-0.330838 -0.476929 5.121788
2.492704 0.226143 6.556883
-1.219752 1.837624 5.918165
-0.774166 -1.045033 5.980556
-0.067292 -0.150388 5.164492
-0.263335 1.294808 5.931413
2.059140 0.113588 6.398355
0.283808 0.052933 0.379585
-0.172250 -0.237396 4.844547
-0.219786 0.304941 4.250588
-0.045337 -0.091542 0.456980
-1.218714 -2.354421 6.108471
-0.666451 0.762480 5.445271
0.703664 -0.113003 5.047867
0.031694 0.128962 5.120181
2.617052 -0.126996 6.558763
-1.112179 2.391104 6.389974
-0.713623 -1.261543 5.781223
0.029645 0.046307 0.347254
-1.017009 -1.404937 6.243840
-0.160494 -0.522475 3.539236
-1.233122 -1.802081 6.403304
0.342338 -0.214644 3.189569
0.091854 0.220790 -0.255131
-0.386453 0.895527 5.334096
0.335850 0.250439 3.255672
-0.453537 -0.015655 3.429264
0.005134 -0.329597 3.852574
0.236737 0.225934 3.360042
0.322364 0.047116 2.027206
-0.471872 0.779840 5.688727
0.021024 -0.033731 3.568547
0.337344 0.067368 2.771399
2.642558 -0.195426 6.082731
2.446431 -0.443587 6.107372
2.197163 -0.071913 6.005469
-1.052171 -1.448136 5.771101
0.137063 0.167785 2.244683
-1.334130 -2.260441 6.479497
0.022553 0.073494 1.789574
0.005920 0.030505 0.090521
0.390692 0.193498 0.638129
-0.952205 1.974956 6.353559
-0.224148 0.202037 2.820428
-0.194018 0.014419 1.510897
0.000311 -0.002640 0.194609
0.217653 0.026597 1.701230
-0.243184 -0.304116 4.989037
0.865183 0.023055 5.224588
-1.141228 -2.114767 6.146089
-0.864097 1.342348 5.783862
-0.162971 0.018244 4.712755
0.431600 0.051229 3.188354
3.068794 -0.104796 6.643455
-1.125737 0.981284 5.560720
2.584459 0.047519 6.091462
-1.325343 2.286862 6.518275
3.302070 -0.161625 6.538370
-0.103015 -0.025875 4.067528
1.402463 0.060819 5.530056
1.780143 -0.171710 5.814983
0.233807 0.279269 0.142154
0.046376 -0.070122 1.678340
-0.519231 0.505658 5.384174
-0.529707 -1.156775 5.224374
-1.278537 2.620163 6.457260
-0.543120 -1.499295 5.737912
2.652161 0.026558 6.335904
1.737821 -0.153795 5.841356
-0.129415 -0.941199 5.330860
2.256393 0.178752 6.041597
-0.883908 -0.912998 5.796637
-0.600297 0.456981 5.446155
-0.279549 0.224955 5.111801
0.120349 0.082940 1.360847
-0.889056 1.368084 5.388457
0.116863 -0.035205 1.719331
-0.929637 1.719950 6.031652
-1.610227 2.134619 5.718012
-0.913862 1.400920 5.713727
-1.158720 -2.137013 6.054321
-0.233384 -0.364933 5.099242
0.319695 0.042553 1.717971
-0.898527 0.998968 5.482831
0.274849 -0.362262 5.154506
0.060118 -0.136464 0.671659
-0.016473 0.609362 4.066332
-1.014963 -2.209247 6.322562
-0.101885 -0.151534 2.919939
-0.101786 0.102775 2.517332
2.590778 0.016874 6.073413
-0.400995 0.127100 3.522543
-1.215207 2.136433 6.320598
-1.378420 -2.023486 6.622737
2.250710 -0.258143 6.057733
0.238283 0.066787 5.190626
-1.453534 -2.801094 6.461801
-1.530567 -2.458697 6.414110
-1.346197 -2.235197 6.286662
-0.004412 0.259504 4.159666
1.373751 0.379505 5.683561
-1.110998 -2.248943 6.158610
-0.878971 -1.262311 6.016930
0.626170 0.254536 5.397771
0.120554 0.182885 1.478060
0.088643 0.090029 3.869731
0.851869 0.092481 5.275748
-0.223748 -0.196692 3.650671
-0.703230 -1.488644 5.553531
0.452266 0.260469 5.256256
-1.080549 -2.060481 6.115785
-0.305041 -0.010294 0.258417
-0.052139 -0.497350 5.406995
-0.574970 -0.916094 5.771947
-0.686956 -1.345479 5.733275
-0.427197 -0.669939 5.691767
0.457806 -0.452010 5.374051
2.744112 -0.035612 6.213749
-1.069107 -1.707447 6.016371
-0.366708 -0.334395 5.299971
-0.392588 -0.876072 5.681942
-0.402497 0.236374 2.076937
-0.078780 -0.186665 4.791686
-0.371473 -0.751960 5.703757
-0.355972 1.074133 5.681649
2.928970 0.053064 6.576773
0.181649 -0.010282 1.728998
0.053837 0.086594 3.127755
0.249816 0.010160 1.549999
0.560785 -0.233795 5.079841
0.260107 0.013526 5.155332
0.756378 0.280791 5.768678
-0.780739 -0.820744 5.536262
-0.227052 0.124944 2.207182
-0.103440 0.045147 2.483723
0.176509 -0.000752 4.161467
0.348328 0.305368 2.606898
0.861029 0.138988 5.314004
2.265968 0.038431 6.273844
-0.778999 -1.069781 5.635489
-1.277274 -1.807425 6.113245
2.314010 -0.147088 6.136611
0.071099 -0.000925 0.901888
-0.025676 -0.516510 5.505064
2.631297 0.057707 6.618891
0.181556 0.012796 2.474412
-0.308000 0.170749 1.389678
1.711108 0.062069 6.002296
-1.715395 2.642157 6.183851
2.011999 -0.429490 5.712490
0.251620 0.209528 5.143807
-1.130310 1.143521 5.777965
-0.693843 1.351627 5.810303
2.352660 -0.015178 6.393177
0.433356 0.059155 0.278830
0.182490 -0.365473 5.171542
-0.022726 -0.152483 5.187255
2.507770 0.024722 6.042363
0.183795 0.220344 1.921151
-0.779043 1.814118 5.894575
0.419562 -0.003620 3.379168
-1.429967 -2.872710 6.320342
-1.553328 -2.206818 6.305206
0.113285 0.087963 0.659600
0.242778 0.295373 5.174996
0.639138 -0.257352 5.461585
-0.589093 -1.394933 5.405077
2.632919 -0.115599 6.435688
-0.026864 -0.480387 2.690426
1.249161 0.260620 5.369823
-0.979456 -1.258195 5.711930
0.056810 0.100491 0.161225
-1.208466 2.743251 6.250899
-0.896370 1.450920 5.914744
-0.153311 -0.317128 4.957249
0.585049 0.062595 5.539032
-0.140425 0.207537 0.891644
-0.263353 0.104434 5.117952
1.998629 -0.060299 6.119573
0.125760 0.066990 2.347575
2.285973 -0.000028 6.024521
2.734721 -0.041929 6.090571
1.639198 -0.132861 6.331738
2.941357 0.151928 6.563051
-0.415497 0.185208 4.547512
2.963947 -0.410729 6.759796
0.318835 -0.416634 5.055510
-0.157830 -0.290581 5.311118
-0.104292 0.066812 0.575328
-1.198045 2.013139 6.271102
0.453008 -0.091369 5.543280
-0.616749 1.153791 5.484699
-1.322423 -1.874814 6.021506
-0.780207 -1.549820 5.513756
-0.166032 -0.439382 0.094868
2.527537 -0.038806 6.308880
-0.539417 1.109162 5.991360
-1.527099 -2.725905 6.459871
-1.168193 -1.865712 6.292629
-0.431355 -1.139687 5.188028
-0.659224 1.595831 5.672998
-0.063638 -0.402261 4.836508
0.292750 0.038623 1.148480
-1.140365 1.497169 6.148262
2.201968 0.035666 6.039600
-0.036188 0.355157 4.283382
-0.480467 1.042608 5.524602
-1.363153 2.158900 6.252761
-0.954650 -1.622120 6.009112
-0.116029 0.411398 5.353497
0.213655 -0.036935 0.044716
-1.330856 1.997114 6.413788
-0.726652 -1.536161 6.195803
2.236605 0.205162 6.466413
-0.367632 -0.127168 3.796585
-1.732517 1.991798 6.571775
-1.017169 -1.935657 6.494715
-0.273501 -0.239983 4.621358
-0.072308 -0.246554 4.924653
-0.059949 0.051012 2.258685
-0.050180 -0.100912 5.624448
0.173449 0.103585 5.443072
-1.598071 2.088057 6.488398
-0.254315 -0.225560 5.285717
-0.286527 -0.006988 5.370798
-0.310241 1.034193 5.443781
-1.503778 -2.136912 6.288826
-0.295159 0.610128 5.183430
-0.859698 -1.662902 5.931174
-0.507435 1.264817 5.908814
-0.270443 -0.272321 5.552408
-1.584315 2.470811 6.088552
0.808193 -0.139744 5.200631
-0.634482 1.039427 5.245078
-1.241228 -2.595434 6.337450
-0.126174 -0.299050 4.964927
-0.993080 -1.725892 6.009157
0.366338 -0.094876 0.813003
-0.007749 0.402538 4.315961
-1.273469 -2.840725 6.587630
-0.041242 0.014653 5.003934
-0.136764 0.089274 1.145338
1.445517 -0.244207 5.715443
2.651633 -0.204804 6.347315
0.010810 0.032636 2.309759
-1.516315 -2.205471 6.536464
0.231500 0.277304 2.626516
-1.573091 2.204858 6.227299
2.198450 -0.020247 5.956474
-0.132756 0.036799 4.245331
-1.127033 -1.807367 6.191944
-0.304165 0.824650 5.038424
1.128826 -0.180482 5.353183
-0.129657 -0.722232 5.603153
0.233823 -0.275183 5.063893
-1.355801 2.184699 6.572102
-1.525293 2.646291 6.100887
0.051838 -0.307192 3.577435
-0.298783 -0.035762 3.767211
-0.334795 0.894896 5.182298
2.092419 -0.049109 5.572862
0.782168 -0.033445 5.465422
0.315889 -0.109775 5.120674
-1.109437 2.022066 6.172803
-1.413798 2.622862 6.205754
0.046094 0.196136 3.596292
-0.998107 1.090863 5.800153
0.251725 0.020853 0.201067
-0.539391 0.482389 4.943292
2.001206 -0.353534 5.966738
-0.956718 -1.680054 6.100567
0.818004 0.270002 5.636817
-1.412224 -1.727841 6.356444
-1.320991 2.305111 6.684927
-0.183428 0.085472 0.179831
2.037092 0.034510 6.372878
0.410882 0.061764 5.336752
-0.736897 -1.585440 5.621233
-0.245847 -0.761221 5.384110
2.982731 0.048285 6.738925
-0.413739 -0.040251 3.333337
0.008982 -0.291765 4.373246
3.263844 0.004142 6.311734
3.049866 0.182079 6.662144
0.153860 -0.221068 3.056868
-1.512152 2.301868 6.528072
0.771571 0.384830 5.197940
0.098812 0.019295 4.465295
-1.126752 -1.768238 6.208769
-0.072357 -0.082364 0.483767
-0.938091 -1.276676 5.889747
-1.632360 2.271266 6.379379
-0.632708 -1.222657 5.858622
-0.489700 -0.444791 5.541274
-0.602452 1.773426 6.062762
0.120298 0.373615 3.804210
1.501318 -0.172041 5.801215
-1.461880 -2.532796 6.476182
0.759054 -0.009831 5.377170
2.351792 -0.010879 6.423886
-0.999940 -1.287098 5.802115
0.054061 -0.409532 3.709008
-1.100194 1.811470 5.931611
-1.714438 -2.611990 6.384971
0.043084 -0.071349 3.778976
1.252785 -0.155151 5.658007
-1.301887 2.417379 6.025288
-1.059821 2.221519 6.263333
-0.814759 1.526823 5.814836
0.043700 -0.155099 1.663950
0.925042 -0.055964 5.261822
0.666602 -0.211918 5.765562
-0.295117 -0.786978 5.562450
-0.030890 -0.232552 1.089023
2.552413 -0.125814 5.870604
1.261008 0.034337 5.567557
-0.198794 -0.101170 2.462168
1.268005 0.169206 5.849286
-0.158762 0.774838 5.104282
-1.058617 -1.442702 6.333039
-0.205721 0.702499 5.232154
-0.326156 -0.286674 5.057091
-0.238056 -1.117042 5.393851
-1.505351 1.736560 6.225079
1.856087 0.168052 6.150705
-0.924343 1.673893 5.875670
0.113168 -0.186005 2.740469
2.435906 0.034429 6.257089
-1.525103 -2.374112 6.446044
-1.248644 2.322797 6.100285
0.974298 0.066697 5.368557
0.020691 -0.213843 2.646624
0.004714 -0.160845 0.332133
0.072303 0.037341 4.028316
-1.536583 2.422900 6.642214
0.183030 -0.087925 2.882094
-0.111512 -0.156730 4.250491
-0.340218 0.720327 5.244942
-0.582412 -1.023343 5.592135
0.181233 0.252399 4.699609
2.700905 0.140354 6.649869
0.438252 0.416882 5.197143
-0.121200 0.373873 5.152656
0.955152 0.104199 5.409458
-1.273741 -2.152524 6.115785
2.233383 0.032341 6.203679
-0.145383 -0.296413 3.052394
1.286083 0.258909 5.759366
-1.447947 2.273758 6.330993
-0.125297 -0.155639 4.924244
-0.308079 0.112348 4.711942
2.086485 0.471924 6.173075
0.207232 0.171159 3.020825
-0.491964 1.239591 5.539104
1.601374 -0.044531 5.688735
-0.464181 1.116738 5.489021
-1.008067 2.206515 6.277031
-1.281678 -2.798605 6.228919
-0.648571 -1.210055 5.726162
-1.653335 2.443159 6.334309
0.313198 -0.178289 5.074269
0.059976 -0.252493 3.761589
-1.026036 1.689197 6.479023
-1.635150 -2.195218 6.410217
0.283220 0.188216 1.939255
-1.025573 1.945959 6.091267
-0.240555 -0.515747 5.366306
0.224531 0.272876 2.073984
1.336308 0.233841 5.926811
0.053019 0.226450 5.624564
0.043664 -0.153083 4.403671
-0.034318 -0.494076 4.249146
-0.266003 0.138238 1.869117
0.103200 -0.295268 5.257068
-1.566342 2.516502 6.391249
-0.361584 1.223270 5.504996
-0.834794 -2.087515 6.548577
-0.979324 -1.602745 6.345109
0.135705 0.218868 2.788515
0.248003 0.081019 1.957077
-1.046520 -1.502391 5.664482
2.505535 0.075321 6.086783
-0.568338 0.272602 5.219068
0.223987 0.058998 5.475315
0.130472 -0.281923 2.176442
3.102382 0.278110 6.259562
-0.970402 -2.589339 6.339554
2.475486 -0.188384 6.390640
0.936653 -0.150021 5.363985
0.093725 -0.234313 3.290289
1.638353 -0.003261 6.061283
0.082959 0.213022 1.662344
-0.186780 -0.015561 3.259524
-1.820778 -2.384968 6.273948
-0.024955 -0.160916 0.233632
0.169449 -0.098979 2.646659
0.126031 0.163777 5.092683
-1.581677 2.324903 6.940861
1.895659 -0.125924 6.136074
-0.034434 -0.298721 0.775925
0.726208 0.102618 5.108633
-1.436498 -2.445152 6.230160
0.845824 0.096773 5.338839
-1.417992 2.499116 6.053819
0.122147 -0.068317 3.667650
-0.115382 0.231132 5.010051
-0.250699 -0.120953 1.912227
