-0.397277 -0.446344 4.902506
0.003894 0.046089 0.504300
0.116892 -0.049124 3.585383
-0.072423 0.134057 1.229581
-0.886991 1.529066 5.880331
-0.021102 0.374671 5.774103
1.606717 0.032257 6.219788
-1.187659 2.210892 6.321328
-1.170483 -2.368026 6.270613
-1.025007 -2.075351 6.200185
0.112310 0.072315 2.133278
2.966480 -0.132257 6.477943
-0.239130 0.008969 4.963135
0.700953 -0.318180 6.021670
0.522498 0.105690 5.633547
-0.612086 1.007727 5.698752
-0.287519 -0.703374 5.860934
-0.088130 0.501539 5.083433
-0.968926 1.495705 6.166958
-1.403409 -2.416715 6.536554
-1.405112 2.606930 6.661967
0.066278 0.358133 2.007179
-0.068190 0.893968 5.540424
-0.715280 1.335666 5.612583
-0.002317 -0.068359 0.044575
-0.639454 0.281887 5.309383
-1.017345 1.773246 5.801605
2.688053 0.120263 6.167541
0.127568 0.218947 2.547696
2.766302 -0.013076 6.109633
-0.064102 0.197063 5.081980
-0.082041 -0.340197 4.548343
-0.561989 1.222593 5.669413
-0.262326 0.072662 4.839254
-0.844390 -1.827460 5.579625
-0.938889 1.607540 5.748526
0.047159 -0.562792 5.279413
-0.043784 0.316562 4.416774
-0.613228 -0.460357 5.251158
-0.705998 1.151136 5.747965
0.088915 0.028522 0.837023
-0.106226 -0.250479 0.152106
-0.933965 -1.500254 5.986542
-1.081561 1.301287 5.907514
0.135807 0.291724 4.606057
0.209539 -0.188624 3.068791
-0.130853 0.001860 5.202744
1.754610 -0.208170 5.808015
-0.099647 -0.224946 3.408636
3.098065 -0.192306 6.123981
2.931389 0.441399 6.480188
-0.846440 -1.179584 5.821052
-0.266212 0.022709 2.380391
-0.130873 0.122142 4.527438
-0.531724 0.239440 5.026685
-0.249815 -1.239163 5.395853
-0.972739 1.669960 6.053679
-1.233191 -1.242111 5.832373
-1.829895 -2.513612 6.782664
0.453782 0.011202 1.114877
-0.394992 -1.073898 5.582247
1.875558 0.312345 6.157937
0.077014 0.221701 2.773508
-0.324012 -0.683722 5.051008
-0.128370 0.020176 -0.160417
0.266396 -0.022808 4.842309
1.042191 -0.264275 5.455690
-0.077464 0.056558 3.984800
-0.558767 -1.180343 5.921752
-0.672754 -1.594514 5.661882
0.038552 0.332858 4.109299
-0.047652 -0.194429 4.704954
-0.541563 -1.424368 5.712748
0.886174 -0.007864 5.327521
1.435913 0.075160 5.994835
0.103402 -0.341100 0.928952
-0.703165 -0.803373 5.461983
2.564050 -0.190929 6.604437
-0.199952 -0.008759 1.047890
-0.922805 -1.834826 6.211131
-1.050131 -2.044730 6.129621
-0.179577 0.593801 5.023896
0.449124 0.209630 5.252615
0.248351 0.207091 2.911943
-1.103932 2.051403 5.880913
2.055057 -0.318732 6.204070
3.113665 -0.009205 6.734156
1.297425 -0.236767 5.746870
-0.098133 -0.661062 5.328450
-1.422810 -2.562143 6.560786
-0.653749 -0.745672 5.519256
-1.469075 1.596551 6.169242
1.376996 -0.104880 5.568522
-1.393435 -2.514179 6.688005
-0.234631 -0.044157 1.038015
2.883689 -0.034766 6.213590
0.093798 0.262589 4.962619
-0.179844 -0.044040 5.120998
-1.346425 1.799577 5.977843
-0.241351 0.162853 5.061220
-0.070893 0.118255 2.691458
0.256912 -0.164049 0.565536
-1.236330 2.358270 6.420658
2.061702 -0.218273 6.161361
0.109570 0.074912 1.284841
-0.993621 1.656359 5.889512
-0.101113 -0.588411 5.184414
1.665368 0.353142 5.833251
-0.335583 -0.121642 3.324962
0.307582 0.082995 4.844683
2.139128 0.131032 6.257804
0.966565 -0.165986 5.592194
2.043577 0.263005 6.055223
1.022345 0.100184 5.812742
0.207701 -0.012364 4.902305
-0.586145 0.813363 5.420159
0.381872 -0.160840 5.041310
-0.789027 -1.511737 6.214702
-0.001113 0.077365 1.591203
-0.108738 0.113075 -0.111705
-0.321457 -0.035808 5.120816
0.589897 -0.076997 5.679520
0.763089 -0.146204 5.574606
0.149133 0.415555 5.100305
-1.122269 -1.809980 6.200272
-0.940022 1.467039 5.877071
0.131533 -0.105304 2.208066
0.071502 -0.009726 1.111650
-0.513679 0.697379 5.601242
0.586609 0.300596 5.173933
-1.217390 -2.191041 5.899634
-1.382354 2.431352 6.477042
-0.330341 1.013441 5.575381
-0.469513 0.800400 5.437267
0.249179 0.002004 5.188185
-0.045275 0.170102 3.631055
0.081645 -0.098222 1.145060
-0.269807 0.347822 5.247515
-1.301252 1.897060 6.500225
-0.428631 -0.122629 -0.057744
-0.252053 0.020736 0.136300
0.398320 -0.046562 5.533941
-1.276708 -2.258764 6.500902
-0.006562 0.015014 1.350017
-0.065389 -0.097873 0.478558
-0.676540 0.528871 5.379321
-0.172015 -0.217815 1.172223
0.420626 -0.066553 -0.104456
-0.457529 -1.172589 5.977925
-0.518661 1.292055 5.643867
0.736118 -0.369789 5.107278
2.725994 -0.019015 6.659184
0.162963 0.011470 3.131231
2.477858 0.364352 6.005191
-0.090787 0.007480 5.310329
-1.359404 -2.678504 6.459999
-1.081912 1.786015 6.179180
-1.032670 1.188307 5.387240
-0.155673 -0.057238 3.172559
-0.090224 0.030439 4.208611
-0.295502 0.003876 5.105436
0.017823 0.169585 4.792590
1.901095 -0.173067 6.199650
-1.233230 2.138133 6.480179
-0.406061 -0.693831 5.342109
-0.024145 0.113922 2.257201
-1.335141 2.581946 5.971821
-0.617007 1.425423 6.023751
0.550260 0.173839 5.376373
-0.882266 -1.659179 5.927404
0.239105 0.017568 3.662748
0.057681 -0.164359 5.077607
-0.335097 0.036402 0.580263
1.262969 0.063774 5.555696
-0.079175 -0.006647 0.368745
-0.285440 -0.125831 0.511535
0.106181 0.004326 3.573516
0.444639 -0.082856 5.328316
-0.025052 -0.070621 4.085212
-0.094418 0.565307 0.968515
-0.823568 1.061322 5.714911
0.118759 -0.095592 3.342276
0.433865 0.475694 4.557232
-0.057474 0.220446 1.245364
-1.383705 2.447178 6.263567
-0.289610 -0.241685 1.633129
0.121449 0.297222 4.410116
-0.189299 0.360561 5.150944
-0.430274 0.241916 5.168691
2.203563 0.152531 6.011109
-0.791849 1.409190 5.541730
-0.205166 0.134731 0.756227
-0.989683 -1.852257 6.324898
1.183397 -0.343474 5.378826
0.156763 0.058210 1.757251
-0.558655 0.679660 5.710626
0.091063 0.105776 4.123693
-1.275640 -2.796852 6.084150
-1.024730 -1.967675 6.120524
0.143889 -0.275801 5.156415
-0.527687 0.636288 5.602882
-0.747576 -1.600817 5.685571
-0.230001 0.533660 5.737272
2.259405 0.032622 6.272632
-0.096649 0.245699 1.768748
-0.099847 0.084740 3.871566
0.007372 -0.059823 4.214021
0.058192 -0.282549 1.325155
-0.000657 -0.086326 0.530631
-0.815261 1.897868 5.980965
-1.478687 2.200354 6.164160
1.024702 0.151933 5.786505
-1.097532 1.937365 5.816538
0.107767 0.015397 2.538882
-0.398826 -0.660197 5.639667
-0.875790 1.139522 5.506809
0.402564 -0.092306 -0.100631
0.451014 0.146147 0.413242
-0.291666 -0.275104 5.176778
-0.413312 -0.621458 5.154617
-0.331762 -0.268914 0.543237
-0.788942 1.758510 5.752901
-0.928629 1.570847 6.062531
0.300641 -0.095372 4.859151
-0.850673 0.987727 5.098905
-0.178172 -0.207736 2.398518
-0.140616 1.023808 5.453792
0.482336 0.080763 5.311847
-1.162140 1.693668 6.328381
-0.572618 1.082834 5.553699
0.886972 0.334121 5.277009
-0.696777 1.299024 5.545046
-0.027498 0.443877 5.137916
-0.569117 -0.943223 5.880161
0.067974 -0.146657 1.481229
-0.379775 0.385681 2.177820
-0.029309 0.056326 5.356854
0.838180 0.005233 5.110701
-0.547532 -0.083724 2.171476
0.019925 0.459769 4.401141
-1.770436 2.281195 6.525282
-0.510009 1.123530 5.635721
-0.471349 -0.866097 5.760506
-0.346195 -0.783674 5.154601
-1.227778 2.779719 6.576969
-0.359783 0.343396 5.270751
-0.150824 -0.443614 1.655254
-1.520659 -2.219205 6.850601
0.719305 0.141774 5.597717
-1.403421 1.854579 5.860348
-0.770139 -1.208029 5.841017
-0.114119 -0.292666 4.114536
3.012167 0.047704 6.613705
0.203071 -0.175738 5.156897
-0.008657 0.284223 3.978885
-0.203199 0.014233 4.451106
-0.289323 0.089334 4.605324
-0.147622 -0.073041 4.513415
-1.493789 1.969532 5.876891
-0.647246 -0.262956 5.528799
0.241360 -0.059426 0.044775
0.241815 0.142071 4.939808
0.038057 -0.467777 4.206031
-0.030970 0.216287 5.084643
0.646717 0.110348 5.477958
-0.239706 0.154975 5.058110
-0.159652 -0.055003 5.336292
-0.176175 -0.046653 1.203941
-1.276779 2.393173 6.442459
-0.417294 0.670445 5.400121
2.177797 0.066247 6.226012
2.446492 0.119872 6.156503
-0.594341 1.390312 5.635104
0.059432 -0.067814 2.942013
2.415833 -0.091456 6.132282
-0.130180 0.507430 5.261661
-1.084727 2.072091 6.158372
-0.000069 -0.305008 5.233669
-1.560887 -2.524978 6.701474
2.920560 -0.283737 6.860680
-0.309494 -0.261903 5.232781
-0.233182 0.208446 4.948875
-0.485052 -0.375572 5.477372
0.986487 0.143396 5.625251
-0.053395 -0.246903 0.958203
-1.344283 -2.184689 6.008316
-0.058466 0.332129 2.748851
1.589759 -0.004422 5.784241
-1.003340 2.539353 6.637926
-0.539947 0.940777 5.284072
0.094259 -0.373918 1.301226
2.057650 0.145137 5.511400
-1.334703 2.153244 6.043557
1.145552 0.144304 5.606365
-1.209533 1.414457 6.310111
-0.820636 1.102077 5.768178
-0.006232 0.043967 2.763086
-0.320396 0.443695 5.569223
0.092996 0.068475 1.800466
-0.117353 0.157684 1.767636
-0.112075 0.015381 0.137624
-0.375444 -0.278121 5.304107
0.605399 -0.179660 5.834076
0.600499 -0.068258 5.461120
0.068766 -0.043685 0.477508
2.855756 -0.119711 6.595595
-0.327644 -0.790332 5.124557
-1.418250 2.771069 6.362314
-0.335330 0.771082 6.044491
-0.263971 0.537679 3.871346
-0.474399 -0.978856 5.616877
-1.607704 -1.522031 6.250301
-0.618821 1.100180 5.686038
0.062373 0.008040 2.255915
-0.382853 -0.150644 2.040140
-0.067929 -0.022006 3.017406
-0.632583 -1.115778 5.471611
0.339738 -0.022734 3.944965
-0.451612 -0.913660 5.323187
0.005758 -0.284692 4.891232
-0.926314 1.306422 5.648386
-0.220895 0.101284 -0.111260
2.199805 -0.033973 5.762048
-0.079486 0.119709 3.463945
3.149876 -0.042216 6.378419
-1.281341 2.247554 6.417547
-1.402650 1.991738 5.919679
0.164571 0.232768 4.955224
-1.133842 -1.994275 6.256196
0.033409 -0.083382 5.244069
0.095662 0.081807 -0.223349
-0.338708 0.184775 4.509073
-1.009180 -1.664820 6.034522
-0.336982 -0.459902 5.518448
-0.008615 0.422914 5.416006
0.125786 0.234979 1.944163
-0.132302 0.030208 2.813200
-1.193598 1.978681 6.386615
0.144961 -0.089400 1.533243
-1.413761 -2.374297 6.207978
-1.162858 2.665355 6.704617
-0.936340 1.648154 6.139204
-0.192000 0.148442 1.247869
0.391320 0.015104 -0.090654
0.018101 -0.085848 5.052601
-0.812912 -1.333850 5.825658
1.700213 -0.128576 5.520133
0.134601 -0.240835 1.442016
0.249356 0.061960 4.917087
-1.695278 -2.644886 6.240720
-1.554788 -2.444924 6.400070
-0.066498 0.100511 2.920029
-0.654528 -1.643793 5.905344
0.251652 0.250127 1.846689
0.588874 0.029229 5.683944
-0.076466 -0.101409 5.138779
1.117286 0.013856 5.272390
-1.004742 1.952442 6.069449
1.978798 0.021659 6.142988
0.029499 0.056057 4.121588
0.150668 0.347686 4.520176
-1.315642 2.945115 6.395758
-1.060362 -1.670836 5.967614
0.046628 0.167250 3.491548
-0.124876 -0.211344 -0.062376
-0.566677 0.597575 5.712422
0.427421 0.015276 5.696673
2.615502 0.313920 6.436436
1.595475 0.181850 5.609854
0.014059 -0.136554 0.450565
2.670164 0.003557 6.567197
-0.124391 -0.256042 4.835303
1.544537 0.243173 5.320842
-1.174739 -2.165093 6.151336
-1.299934 2.266634 6.389506
0.780361 0.072802 5.709788
-0.577524 1.572618 5.861820
0.088463 -0.012388 3.154491
-0.492064 -0.678422 5.575108
-0.671696 0.718149 5.701927
-1.370077 2.085637 6.091770
-0.228033 0.283581 5.031609
-1.388342 -2.472577 6.464059
-0.673655 0.865830 5.611341
0.004298 0.062378 2.782469
-0.164050 0.233730 1.215727
-0.950618 -1.005207 5.919094
-0.679773 1.047462 5.263147
2.998346 0.125258 6.356273
0.445863 0.232436 5.169126
-1.734473 -2.672471 6.289513
0.103131 -0.278432 5.050852
2.629604 -0.100602 6.414207
-0.856860 -2.235773 6.297430
0.048523 0.050024 1.467674
-1.209467 2.654049 6.004682
1.404359 -0.121310 5.832726
-1.328574 -2.656927 6.356653
1.756406 0.276914 5.331733
-1.308497 -2.387554 6.462251
-0.222575 0.935029 5.389366
-0.482410 0.555005 4.889558
0.036930 0.331064 2.164139
-0.783736 1.125522 5.555313
-0.050094 0.286291 2.400870
-0.357539 -0.046673 1.067470
-0.694914 1.191595 5.751884
0.006802 0.043235 4.033103
-1.549328 -2.284139 6.414551
0.314788 -0.030456 5.285032
-0.936849 -1.843277 5.659314
-0.012081 -0.120563 3.216488
1.735294 -0.363689 5.652645
1.174091 -0.077708 5.218531
-0.976008 1.804863 5.910155
-0.790932 -1.077199 5.524851
0.208439 0.304960 4.997059
-0.458560 -1.354428 5.940945
-0.820461 1.325380 5.828066
-1.021353 1.737179 5.621949
-0.572051 1.242003 5.224429
-0.220800 0.090240 3.808837
-0.992658 -1.638966 5.776972
-0.006282 -0.011362 2.062860
0.089222 -0.384196 2.523826
-0.209176 -0.174639 5.211651
2.469950 0.281888 6.174020
0.055886 0.187637 5.210374
-0.383325 -1.305796 5.403042
2.213041 -0.016432 6.065309
-0.475364 -0.960618 5.615188
0.078309 0.243261 0.351088
-1.000876 -2.055883 6.474276
-0.952666 0.526539 5.012512
-0.528722 1.297763 5.667837
1.222544 -0.004393 5.492211
0.419841 -0.052880 0.927659
-1.057553 -1.548680 5.750718
-0.844419 1.349513 5.860976
-0.262129 0.203384 4.834974
0.059797 0.288912 4.115222
-0.224525 -0.139584 2.473623
-0.514581 -0.046242 4.943249
-1.457508 -2.070193 6.441564
0.067216 -0.215128 4.360664
1.811821 -0.013151 6.448477
-1.530903 2.318723 6.443499
0.316459 -0.237053 5.145943
-1.468737 -2.584938 6.379295
-0.121764 -0.098834 4.976868
0.442044 -0.159026 5.142515
0.076500 -0.037623 5.042949
-0.006501 0.012163 3.397651
2.461019 -0.133626 5.978777
2.188684 0.347661 6.241587
-0.691431 -1.163760 6.063205
2.611819 -0.208284 6.624039
-0.438787 0.320087 3.059379
-0.102859 0.119590 1.010363
-1.013422 1.287856 5.937834
2.018947 0.023828 5.934066
-0.138112 0.164605 1.461836
1.351877 0.065789 5.429020
-0.426948 -0.130397 5.389783
-0.342906 0.301740 5.186905
-0.969715 -2.227680 6.156772
-0.570652 -1.247749 5.335443
-0.259858 -0.183041 5.169496
-0.990721 1.938782 6.530033
0.760053 -0.068823 5.326145
1.366933 0.001051 5.740651
0.058008 0.000059 2.273498
-0.023733 -0.155654 3.121469
0.012828 0.174770 3.517497
0.154917 0.033350 4.608677
-0.373398 -0.750208 5.325675
-0.204705 -0.292685 0.742699
1.958671 0.354311 6.101152
-0.116482 0.241046 5.225791
-0.076952 0.183838 3.984203
-0.060145 -0.235816 1.927663
1.142573 0.132267 5.443441
-0.836718 -1.605869 5.515565
-0.446780 -0.797123 5.518168
-0.647637 0.807818 5.801725
-1.216599 1.794878 6.298279
-0.125187 0.389613 4.903914
-0.090424 -0.023031 3.938304
0.250431 -0.186784 4.905239
-0.028808 0.805972 5.243697
-1.250379 -2.449972 6.279267
-1.282403 -1.613413 5.755960
-0.696325 -1.551779 5.959801
1.931308 -0.296308 5.780019
-0.401515 -1.525386 5.830574
-0.218212 -0.197164 4.563908
0.007210 -0.159570 2.049011
1.533344 0.032103 5.633263
3.075083 0.131020 6.258922
-0.034620 0.076235 2.962037
1.113402 0.148918 5.638061
-1.499804 2.573365 6.556581
-0.550787 -1.051691 5.621871
-0.982270 -1.585010 6.094853
2.916022 -0.186099 6.340849
-0.841987 -1.867338 5.950524
-0.083178 0.191678 1.716937
-1.426149 -2.516448 6.432828
-0.091537 -0.075914 2.763284
-0.910886 0.713105 5.602761
-1.712936 -2.513722 6.574308
0.044725 -0.054639 4.880012
-1.721775 2.664620 6.794429
-1.128732 1.866702 6.638662
0.014820 0.394628 0.451052
-0.492110 0.960124 5.838702
0.198600 0.209168 1.144624
0.278714 -0.043837 4.917122
-0.700891 -0.962853 5.708902
-0.674224 1.203281 5.433812
-1.197346 -2.083702 6.236363
0.189573 -0.132358 3.065581
2.093868 0.095958 5.927104
1.244273 0.137647 5.489524
0.101846 0.211931 5.281031
-0.783045 -1.084712 5.489764
0.023957 0.001822 0.457733
-1.670686 2.877795 5.926768
0.412327 0.078268 4.119178
-0.025835 0.026956 3.986010
0.072764 -0.059856 2.119092
0.786615 -0.311008 5.899466
0.016746 -0.257693 1.638831
-0.807560 1.587919 5.844515
2.812444 -0.130381 6.680132
1.887610 -0.007181 5.730173
-0.339871 -0.261288 2.929231
-1.376258 -2.232609 6.174947
0.044092 -0.083867 5.374204
-0.941861 -1.547501 6.108844
-1.249980 2.054914 6.765823
-0.107099 0.072443 2.247282
1.041925 0.367077 4.974948
-0.335177 0.016421 4.692618
-0.245768 -0.378820 3.953343
0.197402 0.242106 3.994532
-0.012262 -0.023146 2.061714
0.168052 0.167886 4.582469
-0.878717 -1.986448 6.042146
-1.086841 -1.596653 5.965560
0.153984 0.072734 2.939551
1.864911 -0.176327 6.208653
0.119919 -0.029979 4.589124
0.006092 -0.224979 0.489690
0.718142 0.187486 5.332981
-0.787138 1.144238 5.493837
0.262566 0.178784 4.930955
-0.270091 -0.668380 5.865792
0.083684 -0.182434 4.603906
2.237899 -0.003890 6.330548
-0.222147 -0.020680 3.122562
-0.031672 -0.220475 0.575118
-1.152287 1.939127 6.453385
2.521700 -0.047667 6.406832
0.597551 -0.379056 5.173563
2.562017 0.219820 6.098552
-1.098446 1.481217 6.163131
0.670161 0.230502 5.543735
1.309783 -0.044044 5.602494
-1.419427 2.451253 6.073163
0.063416 0.101945 1.983994
-1.153813 -2.249428 6.307786
-1.203827 1.961216 6.132466
0.917468 -0.197924 5.081542
1.994694 -0.058594 5.674447
0.073782 0.051248 3.501200
0.244988 0.248954 0.152882
-1.183320 2.201914 6.558038
-1.234321 2.190353 6.432039
-0.077223 -0.150529 4.810303
-1.263348 -2.140112 5.943410
0.149958 -0.081518 2.967765
0.150090 0.207440 4.744231
-0.383071 -0.724634 4.947633
-0.827828 1.703293 5.831324
2.577385 0.085935 6.519141
-0.015344 0.027657 1.499133
0.061697 -0.069619 4.248502
1.031082 0.576085 5.309488
-0.267887 0.266112 1.367886
-1.425366 2.192060 6.384511
-0.039767 0.114849 2.473883
0.032682 0.215199 3.756560
-0.104239 -0.269197 2.206050
-0.009292 -0.369797 0.862958
-0.137150 -0.344471 0.139823
0.021072 -0.394348 5.457248
-0.174384 0.666177 5.455185
-0.059337 -0.231021 0.995243
-0.100850 0.598916 5.423022
-0.581538 -1.583728 5.783023
1.946369 0.131068 6.072273
-1.124383 1.848564 6.098402
-1.115962 1.026267 5.367819
-0.021030 0.098971 0.432202
-0.670920 1.024437 6.225349
-0.293927 -0.756821 4.964058
2.401536 0.311037 6.303412
-1.434095 -2.409533 6.500224
1.699295 0.034838 5.547241
-1.310279 -2.716578 6.446126
0.062182 0.133680 0.278336
-1.874592 -2.609592 6.826549
-0.273871 0.006471 3.124122
-0.234500 0.553228 4.879185
-0.054123 -0.122540 5.488239
-0.674987 1.329666 5.388626
0.047129 -0.287662 2.811650
0.034274 0.110974 2.759723
-0.992012 1.386869 5.680562
0.052401 0.195311 5.062792
0.716615 -0.362979 5.608459
-1.105426 2.008860 5.781973
-0.494280 -0.910417 5.242418
-1.487810 2.580176 6.570449
-1.242802 -2.111792 6.451173
0.312328 -0.127238 1.740636
-0.525722 0.952112 5.311795
-1.308718 2.158734 6.573696
-1.363640 2.105025 6.386106
-0.096734 0.053525 3.194296
-0.100291 0.055248 0.924960
-0.198680 0.023978 3.601464
-0.020173 -0.304324 2.918796
-0.977469 -2.333665 5.924429
1.938092 0.090843 5.904519
0.889847 0.501021 5.519257
-0.558619 1.059062 5.644229
1.996069 -0.041052 5.823944
2.220973 -0.324380 5.951995
-0.397543 0.473862 5.092993
-1.285169 -1.730481 6.025279
-0.787047 0.948588 5.165642
-0.404369 0.085714 3.522911
0.105781 0.020952 2.954851
2.797910 0.108139 6.572564
-0.448011 -1.131062 5.692037
-1.004525 -1.911340 6.264971
2.917201 0.011821 6.102827
0.683503 0.298275 5.616804
0.475367 -0.343204 5.121030
-0.278364 0.204221 -0.282440
-1.219679 -2.018876 6.178033
-1.026883 2.037743 6.387266
-0.201973 -0.208497 0.751763
-0.107890 -0.027950 3.593297
0.119635 -0.064657 4.600317
-0.074031 0.271987 0.735449
2.486939 0.141856 6.066785
-0.623979 1.267642 5.682724
0.149021 0.036464 3.990766
-0.371738 -0.022102 2.577088
0.176185 -0.144430 2.895085
1.679966 -0.028232 5.559509
0.093158 0.323851 2.375842
-0.738150 -1.165518 5.791564
0.325286 -0.236014 5.099462
-0.542279 -0.697032 5.148519
-0.204563 0.150829 1.171171
0.125086 0.072015 5.303597
0.121347 -0.251869 4.693820
1.156330 0.209811 5.678137
0.297047 0.052492 3.205862
1.737339 0.055909 6.247143
-1.404780 -2.175015 6.339816
-1.427063 2.007826 6.199844
-0.503752 -0.414023 5.288944
-0.402166 1.458959 5.935704
2.171551 -0.167372 6.002782
0.269867 -0.093278 4.947704
-0.148029 0.281007 2.317630
0.071349 -0.423989 0.228989
2.577613 -0.152636 6.196601
-0.235557 -0.662753 5.327137
-0.321464 0.036011 3.253182
-1.135008 1.659469 6.060011
-0.727241 1.614425 5.898003
-0.598158 1.591631 6.123674
0.071698 -0.088421 0.436686
-0.491812 -0.295235 5.084687
-1.133854 -2.365234 5.936643
1.034450 0.004997 5.708859
-1.022090 1.302434 6.026765
-1.364581 -2.318368 6.093364
0.216824 -0.218854 5.120600
0.273496 -0.175083 2.096194
0.027667 0.114163 4.397124
0.947248 -0.223699 5.369197
-0.288233 -1.541733 4.960219
-1.465190 2.523751 6.495481
0.697756 -0.230510 5.897229
0.189734 0.126791 2.080380
0.147485 -0.017507 4.501558
-0.301670 0.625478 5.313432
0.112960 -0.055638 2.440309
1.262112 -0.433254 5.896693
-0.843648 -1.481853 6.156645
-1.481436 -1.980081 6.565495
-0.953262 1.895823 5.910419
-0.639493 1.382882 5.838732
1.061439 -0.166727 5.526377
-0.357535 -0.701162 5.392145
0.446432 0.404083 -0.047938
-0.062499 0.175276 1.616587
0.521293 0.048177 1.928033
-0.912985 -1.554285 5.909101
0.320003 0.119563 4.049322
1.240554 -0.170154 5.558701
-0.407214 -0.137197 5.156696
-0.743030 1.361047 5.979674
-0.023713 0.298795 5.188774
0.228332 0.206481 5.163612
0.134284 0.180002 4.838690
-0.618526 0.782365 5.472393
0.255406 0.048211 4.923435
-0.263612 0.252235 2.559386
-0.049347 -0.254907 5.317060
-0.582453 1.139401 5.712873
-0.037918 0.082663 1.482318
-1.010877 1.874743 5.945010
-0.576589 0.703370 5.031094
-0.502194 0.576981 5.213927
0.825668 0.292543 5.549425
-1.054541 1.735863 6.241366
3.138342 -0.035991 6.330026
2.356094 -0.229579 6.093743
1.501728 0.078696 6.019717
2.569949 0.026585 5.729885
0.079350 -0.108694 3.550068
-0.408635 -0.101415 5.130602
0.293146 -0.253502 2.537973
-0.667723 -0.671603 5.712806
-0.114431 -0.129480 0.127259
-0.994215 1.708045 6.307361
0.185494 0.198973 0.668617
-0.076494 -0.028633 5.040180
1.648031 -0.214062 5.892246
0.082719 -0.062959 1.025586
-1.401780 -2.229049 6.305046
0.046364 0.019834 4.924913
-1.379538 -1.854570 5.634045
1.182896 0.156435 5.526658
-0.056857 0.085357 3.912846
0.119597 -0.051374 2.844859
0.376981 -0.355125 5.635638
-0.491455 -1.015669 5.751574
-0.562415 0.839837 5.518681
-0.353362 0.709886 5.160349
2.350256 -0.152702 6.139558
-1.381159 -2.103281 6.266061
1.262278 0.124647 5.585964
-0.051437 -0.159112 2.159279
-0.178912 0.117243 4.467580
0.983283 -0.036941 5.500014
-0.359089 -0.219944 5.466198
-1.566036 2.171917 6.276082
-0.760448 -1.427559 5.824950
1.497395 0.425073 5.743265
0.046452 0.219703 4.679519
-0.954772 1.534904 5.708971
-1.338076 2.570458 6.413556
-0.749095 1.080307 5.897816
-0.104061 -0.318255 3.795954
0.000162 -0.091345 1.984976
1.908427 -0.043818 6.059377
1.387622 0.252885 6.329568
0.028558 0.225380 3.824503
0.249557 -0.106163 0.425114
-0.161621 0.035709 4.875907
-1.419488 2.028813 6.184797
-1.093874 1.472852 5.916625
-0.772628 1.152453 5.607255
-0.693997 1.601167 5.704419
1.014855 -0.201004 5.478531
-1.107963 -2.315548 6.222548
0.041542 0.139604 4.422561
1.473525 -0.117090 5.845221
0.575452 -0.284354 5.053752
0.015656 0.297340 -0.389490
0.450211 -0.020069 2.856481
-0.310319 0.605168 5.316999
-0.625736 -0.944600 6.088843
-0.530299 -1.488171 5.739182
0.030971 0.235416 5.624104
-0.336095 -0.841519 5.462979
0.290062 0.110399 5.454413
-0.260743 -0.274272 5.236675
-0.127230 0.149601 3.770203
-1.231891 2.434601 6.539144
0.251080 0.033317 2.049221
2.537574 0.204668 6.329760
-1.493934 -2.043557 6.293524
1.620710 -0.042597 6.045829
-1.419893 -2.608795 6.570740
-1.523275 -2.195521 6.554891
1.879542 0.071093 6.035502
2.326998 0.138694 6.317332
0.261911 0.002664 0.515037
-0.124199 -0.118967 1.668708
-0.285156 0.627079 5.251733
1.473994 0.294076 5.917711
-0.133037 -0.351685 5.205124
-0.709647 1.725112 6.074788
-0.604445 1.422788 5.518371
-1.296783 -2.189265 6.293993
-0.854444 -2.170814 5.909641
0.259316 -0.363246 3.790343
0.079783 -0.069159 3.401314
-0.800326 -0.698184 5.418242
2.671506 0.193724 6.220702
-0.244111 0.078586 5.327166
0.833696 0.063834 4.878371
0.177546 0.523803 3.301906
0.061405 -0.053332 5.071874
-1.001426 2.220487 6.396957
2.941950 0.184976 6.364853
-0.458757 -1.467157 5.489901
-0.166419 -1.032258 5.648335
-0.042223 -1.097403 5.782809
-1.370943 -2.177821 6.316465
-1.607320 -2.618072 6.323495
-0.977012 -1.872834 5.918170
-0.294702 -0.017900 2.378392
-1.001065 -2.039844 5.993926
2.431023 -0.182596 6.087540
-0.315874 -1.167444 5.582557
0.690953 -0.010351 5.203093
-0.710214 1.250421 5.827777
0.181359 -0.143322 5.242551
2.352098 0.188485 6.457434
-1.743790 2.512715 6.403551
-0.144763 0.156310 1.870414
1.914964 0.041389 6.165686
-0.303513 -0.286554 3.627287
1.301085 0.059230 5.674042
-1.670149 -2.330184 6.236881
-0.900775 -1.414823 5.991333
-0.745370 0.720239 5.469583
2.598503 -0.176669 6.274062
0.027846 -0.096208 4.582613
0.123725 -0.139187 4.103827
0.487222 -0.061012 2.070991
0.106858 0.067798 -0.092911
0.894235 -0.075384 5.595428
0.133478 0.102751 5.254191
1.126032 0.025783 5.743228
-1.282763 2.408082 6.175300
-0.063951 -0.208859 2.501270
1.446882 -0.087863 6.067135
-0.106008 0.762088 5.465272
0.693778 0.011025 5.594336
3.052444 0.263692 6.449826
-0.331174 0.182510 4.998340
-0.471584 1.050139 5.714540
-0.413556 -0.116730 0.057121
0.222929 0.256309 0.306983
-0.755562 -1.307638 5.897554
-0.197921 -0.176223 5.026716
2.833265 -0.023298 6.165180
-0.308211 0.019643 3.439233
2.005202 0.145945 5.728060
-0.365064 -0.845582 5.471430
-0.445132 -0.640405 5.177042
0.199378 -0.185447 3.321046
-0.639305 -1.098580 5.339483
-0.162572 -0.175770 1.161951
-0.152862 0.041916 5.021875
-1.005776 1.527874 5.767435
-0.333366 0.524043 5.131890
-1.434959 -1.588560 5.548727
-1.469092 -2.478023 6.516794
-0.295874 0.362929 2.220484
-0.291549 -0.152788 1.158931
-1.200212 1.433595 5.931492
-0.794868 1.274193 5.685013
-0.221470 -0.251078 0.392335
-0.213187 0.222623 4.283008
0.091591 0.231840 1.695908
-0.055410 -0.109153 1.993442
0.235400 0.136423 0.905654
-1.150885 -2.310703 6.469494
0.497962 0.105953 2.890902
-0.194881 -0.295086 0.954610
-0.394853 -0.276437 2.507333
-0.139975 -0.108565 4.833456
1.185602 0.080492 5.683908
-0.127139 -0.223381 1.649185
-1.539718 -2.851929 6.512692
0.051618 -0.241377 -0.050199
2.745321 0.026390 6.415063
-0.242043 -0.875407 5.433378
-0.598051 0.845313 5.476144
-0.059052 0.090692 5.164163
-1.010118 1.738353 5.901753
0.403423 -0.016665 0.096728
-0.262358 -0.139417 3.606768
-0.047573 -0.175706 0.572878
-0.255673 0.254064 4.867782
1.496524 0.533634 5.606565
-0.787463 1.692106 6.226120
-1.227212 -2.507608 6.429081
0.059672 -0.068021 4.305770
0.176693 0.030255 0.374276
0.165138 0.140027 3.181390
0.207513 -0.043920 3.372948
-1.348368 2.036384 6.511435
-0.169883 0.242682 1.211901
-0.146990 0.109903 4.840227
2.757582 -0.051576 6.265795
2.372244 0.006183 5.902960
2.896417 -0.246933 6.535199
-0.050760 -0.207974 5.628799
0.799246 -0.540094 5.463259
0.255898 0.123691 0.362993
2.522091 -0.133959 6.433554
-0.658264 1.147907 5.615647
-0.645623 -1.220791 5.304246
-0.275000 -0.088129 1.021062
-1.448245 -2.016029 6.166833
0.091475 0.016153 4.124399
-0.440402 -0.337696 4.371314
-1.117071 1.674045 6.206790
-0.341289 0.152398 3.959439
2.405678 -0.224888 5.929157
0.056917 -0.055899 5.299523
0.256078 0.303281 5.492929
-0.626215 -1.582992 6.080135
-0.247761 -0.109275 1.896495
-0.568743 0.368733 5.300514
-1.279322 -1.761911 6.006203
-0.705167 -0.867678 5.632524
-1.166240 1.819993 5.831534
-0.864385 1.755014 6.020965
-0.181431 0.085836 -0.195501
-1.385246 2.223543 6.227293
0.407966 -0.114949 1.085088
1.540464 0.257167 6.163747
3.422809 0.052828 6.819869
-1.264172 -2.695521 6.564859
0.331196 -0.071653 1.810009
1.018380 0.118094 5.886496
-0.515258 -0.923863 5.800601
-0.786691 1.620439 5.784969
2.982284 0.159496 6.190489
0.705746 0.081098 5.503049
-0.932705 -1.480508 5.863232
1.352850 0.101413 5.856785
-1.337586 2.475570 6.667833
-0.460923 -1.178467 5.430115
0.552761 0.166759 5.252637
0.540355 0.045302 3.270997
1.601885 0.063844 5.662535
-0.618748 -0.816412 5.217468
1.457172 -0.395779 6.106004
-1.389248 2.503844 6.124677
-0.111512 -0.201145 -0.032928
-0.031546 0.438958 4.959046
-0.151162 0.281930 4.954815
0.266377 -0.119403 3.503400
0.089176 0.109512 4.972450
-1.007400 -2.058634 6.362370
-1.272559 -2.339591 6.451227
3.065413 -0.069914 6.756753
-0.310870 -0.956169 5.362043
0.203355 0.015814 3.982992
-0.261100 -0.023936 2.833525
0.095724 -0.067909 4.119686
0.010100 -0.267009 0.651940
-0.606342 0.096129 4.024586
0.321210 -0.164912 3.405916
0.811345 0.362096 5.088471
0.485980 -0.153730 5.261889
0.046682 -0.489463 5.207508
-0.944953 1.390890 5.900972
0.052551 -0.079818 4.701081
-1.093438 2.067996 5.470864
-1.279408 -2.410494 6.384449
1.802877 -0.148688 5.615139
-0.180043 0.467282 4.886924
2.757025 0.000062 6.381836
-1.265965 2.231357 5.997369
-1.510496 -2.292485 6.055593
-0.430513 1.179694 5.423322
0.830767 -0.418913 5.481969
-1.028125 2.443518 6.471277
-0.800166 1.556516 5.757056
0.147069 0.368076 4.905938
-0.896202 -1.672102 6.192985
-0.392889 0.509106 5.104115
-0.278518 -0.063151 3.314709
-0.522676 1.102835 5.472232
-0.739476 -1.971829 6.171066
-0.435590 -1.023917 5.283820
-0.169193 0.007530 1.150273
0.287678 -0.390440 5.448383
0.014180 -0.115519 3.739262
0.151659 0.073018 2.571045
-1.029471 1.957388 6.054866
1.344189 -0.327088 6.140923
-0.040979 -0.000063 5.060869
0.157781 -0.272882 3.475208
-1.505244 2.649772 6.397359
1.332391 0.097835 5.485745
1.888025 -0.048096 6.027722
-0.760698 1.179578 5.609001
0.002204 -0.210874 1.844261
2.299092 0.158583 6.950031
-1.270673 -2.494447 6.260112
-0.687540 -1.696624 6.308372
0.085489 -0.364762 4.792076
-0.236238 0.527457 5.184455
-1.237099 1.843204 6.347693
-1.051516 -1.564910 5.635414
0.486064 -0.014426 5.249478
-0.195308 0.023794 2.240835
-0.114697 0.350622 0.878053
-1.494952 -2.591365 6.520474
-0.235564 -0.035329 1.212717
0.210046 -0.040236 4.709560
-0.539330 1.591887 5.962913
-0.180844 -0.239116 2.743012
0.008057 0.082058 2.709451
2.540995 -0.051240 5.658700
-1.350367 -2.187692 6.067174
1.972672 -0.061120 5.655796
1.621203 -0.280753 5.581675
-1.093611 1.618438 5.850121
-0.042741 0.396642 0.183045
-1.206719 2.458685 6.333604
0.520741 -0.203747 5.627437
-0.621071 -0.111051 5.137241
-1.273636 -2.353669 5.935771
0.058061 0.153136 1.258164
0.168982 -0.097750 -0.085447
1.305449 0.345054 5.682270
-1.528295 -2.332921 6.522958
-1.493611 1.758074 6.408290
-0.245063 -0.033766 1.247093
-0.113873 0.095846 0.188751
0.154852 0.057367 0.290867
-0.685743 1.460882 5.742150
0.286076 -0.050166 -0.065181
-0.239770 -0.238622 5.114694
0.204011 -0.140222 4.521276
-0.155094 0.451307 5.162708
1.738924 -0.188764 5.842398
-0.170456 -0.145356 3.958704
-1.282491 -2.542115 6.253071
0.398511 -0.107216 0.496896
0.159490 0.351867 2.749466
-0.123561 0.048697 1.427490
-1.255932 -1.618878 6.260292
2.893597 0.044838 6.453147
-0.829681 1.969561 6.110770
0.338606 -0.089530 4.958743
-0.260303 -0.663821 5.115940
-0.813451 -1.746619 5.851995
-0.357253 0.657925 5.225178
-0.227034 -0.700093 5.466114
-1.866287 -2.304020 6.331024
-0.351137 -0.418985 5.439759
1.025205 0.015996 5.688686
-0.303218 -0.144000 2.725780
-0.509743 -0.863896 5.720082
-0.351464 -0.143549 5.220041
-0.535596 0.318290 5.301606
2.181036 0.233211 5.974456
-0.097007 0.101430 4.307479
1.062107 -0.193187 5.575320
1.015785 0.350956 5.244302
0.047673 -0.040402 3.324702
-0.198664 0.180100 3.711601
-0.072360 0.094969 4.838296
3.217191 0.147065 6.534400
0.037120 -0.300191 5.171340
-1.027579 -1.775574 6.214122
0.113658 0.271905 4.938091
-0.866247 1.779441 6.062050
-0.210215 -0.601536 5.229636
-0.258869 -0.146682 5.029195
1.004438 0.033976 5.424203
-1.518914 2.023588 6.160423
0.178311 0.228340 4.275262
-0.519474 0.377823 5.278039
-1.571278 -2.777429 6.095272
1.085728 -0.252604 5.872588
2.440789 0.109691 5.819750
0.040857 0.148163 2.850148
-1.438543 2.105047 5.794114
1.058592 -0.129132 5.688906
-0.252135 0.494382 3.039913
-0.906043 -1.746783 6.080055
0.958398 -0.016419 5.562745
1.563298 0.453492 5.907695
-0.364472 -0.551315 5.471098
0.304322 0.221346 4.420589
-0.784177 1.481123 5.933263
-0.302332 0.627888 5.324399
-1.427210 2.918381 6.547972
-0.885961 -1.002085 5.560717
0.656816 -0.038494 5.312793
-0.896314 1.745702 6.119647
-0.245779 0.158795 3.810330
-0.173327 0.589226 5.231471
-0.995520 -1.608165 6.014594
2.534102 0.057780 6.514823
-0.581669 0.520286 5.672005
0.031636 0.145609 1.848327
1.719352 -0.095701 5.592191
1.968693 -0.079641 6.255672
-1.354119 1.758428 5.845894
-1.537167 2.229034 6.216198
-0.534593 1.050132 5.947988
-0.934103 1.240598 5.540127
2.457191 -0.139057 6.069845
1.847301 -0.277047 6.103405
0.003537 0.038830 3.734842
-0.181692 -0.088260 1.763367
-0.471085 -0.862762 5.261819
-0.437107 0.081246 4.894586
-0.150438 0.035012 1.615686
1.022367 0.447105 5.797247
2.281612 0.210662 6.191697
-1.522371 -2.353942 6.065162
-1.127764 1.389255 5.715915
-0.733383 1.367167 6.206185
-1.607347 -2.378913 6.466639
-0.049755 0.390434 4.964534
-1.272163 2.528312 6.444886
1.316137 0.199352 5.680776
0.254901 0.133976 3.416211
2.863587 -0.065303 6.396351
-0.834985 1.168053 5.763161
-0.218165 -0.398008 4.908016
0.058891 -0.203157 3.122628
-0.265286 -0.085838 5.209346
0.186855 0.197185 -0.141894
1.176943 -0.004952 5.520339
-0.158967 -0.137509 5.036858
-0.581334 -0.008855 5.182480
-0.154070 0.229434 0.915568
0.441402 0.082363 5.017512
-0.094940 -0.179098 5.201452
0.089762 0.051720 2.777981
0.438192 0.065475 1.315705
-0.134266 -0.061198 4.238038
0.192358 0.006005 3.399922
0.246083 -0.315947 0.336595
-0.338988 -0.708801 5.261212
-1.343674 2.583766 6.194732
-0.683277 -1.475426 6.080882
-0.152205 0.270600 5.345551
-0.944803 -1.663733 6.101019
0.045436 0.172666 3.951398
-1.340546 -2.300029 6.174924
-0.019702 -0.547864 5.275452
0.027250 0.228025 3.515844
-0.344491 0.342846 5.373145
0.048503 0.097662 0.969413
3.084241 -0.174029 6.336071
0.105799 -0.129533 3.629091
0.000196 -0.114592 5.071753
-0.098076 -0.063552 2.423764
0.071714 -0.253081 1.723085
2.099572 -0.073722 5.776278
-1.354997 2.279453 6.206154
0.056597 -0.254388 2.295525
3.204467 0.391686 6.465646
1.025976 -0.210701 5.310004
0.794207 0.024101 5.764877
0.169387 -0.035343 5.220951
-1.273235 1.631989 6.191650
-1.611109 2.616247 6.597591
0.004725 -0.342036 3.974007
-0.598735 1.017799 5.227254
0.062646 0.067150 2.591233
2.405538 0.447814 6.151939
0.067774 -0.148116 0.312114
-0.198869 -0.151589 2.875551
-1.074944 2.105098 6.167055
-0.110637 0.157235 1.351788
-0.157066 0.332820 4.305802
0.116843 0.154768 2.131845
-0.925557 1.368753 5.667092
-0.381729 -0.913101 5.624649
0.987660 0.014150 5.568413
-0.735491 -1.144792 5.575449
-1.505195 -2.260619 6.181759
0.137509 0.526658 5.117803
-0.652175 -0.534000 5.068373
2.586787 -0.094564 6.377829
-0.086853 -0.108012 2.696774
2.391323 -0.122656 6.317397
0.152201 0.080217 0.886306
1.714628 -0.241499 5.629514
-1.368249 -2.805661 6.557187
-1.517976 2.042308 6.290794
-0.297137 -0.221374 2.346645
0.041973 -0.211975 4.156783
-0.617654 -1.352664 5.692799
-0.768878 1.442920 5.621280
-0.538635 1.669680 5.580671
-0.033284 0.095488 2.575732
0.112223 -0.154667 5.554136
-0.005240 -0.504631 2.777490
0.326631 -0.117581 3.849642
1.475319 -0.096502 5.884242
-0.285472 0.032272 2.314405
-0.476334 -1.057617 5.937458
0.211920 -0.183160 1.211454
-0.869839 2.332415 6.520180
1.122866 0.258225 5.394552
-1.278949 -2.285495 5.986318
2.273943 0.281247 5.909134
-0.001238 0.106447 1.465436
-1.381779 -1.880161 6.253936
-0.599255 -1.744704 5.712867
-1.836722 -2.545050 6.302897
-1.319067 2.176682 6.248501
0.296969 -0.091789 1.351019
2.492384 0.096928 6.080938
0.351420 0.270141 3.691482
-1.421579 2.118172 6.105160
-1.310088 2.183351 6.368987
0.165151 0.337049 3.562901
-0.604829 -0.530679 4.833847
-0.269959 -0.498242 5.254195
-0.286396 -0.861425 5.454190
1.824440 0.298710 6.341093
2.535740 -0.148083 6.332240
1.185911 0.035692 5.492321
-0.869159 -1.699603 5.880273
0.577401 -0.019345 5.358799
3.059943 0.079551 6.482383
0.408437 -0.100696 0.475068
-1.288212 2.278290 6.584440
-0.023220 0.340059 4.132970
0.035898 0.052582 0.147001
-0.270573 -0.377642 5.360106
2.168076 -0.115923 6.302202
-1.192116 -2.305790 6.444613
-1.397134 2.380870 6.611733
0.651128 -0.395850 5.610342
0.473786 -0.129544 3.400119
-0.639937 -0.531696 5.754504
0.104599 -0.014695 2.408200
1.520977 -0.353609 5.898955
-0.309137 -0.353353 5.203647
-0.018487 0.229625 2.880847
-0.802405 0.967496 5.727638
2.840468 0.123301 6.296750
2.692956 -0.088195 6.095786
-1.085280 -2.391249 6.183435
3.048766 -0.042783 6.083966
0.455365 -0.185743 0.811362
-0.081216 0.048406 4.858906
-0.362606 0.751143 5.447672
-0.773506 -1.710296 5.867720
0.068653 -0.059314 3.961716
-0.306107 0.148168 4.959962
-1.251717 2.260280 6.467612
0.081738 0.247565 3.727291
-0.704591 1.572788 5.837537
0.144613 0.334661 5.227254
-0.200635 -0.273600 5.082423
0.183566 -0.130250 5.130274
-0.081031 -0.116099 3.471540
-1.027692 -2.275883 5.989402
2.717385 -0.134280 6.086947
-0.525673 0.522294 5.176355
-0.479664 1.426089 5.610277
-0.073092 0.092086 4.913023
1.804143 -0.617904 5.808927
0.203904 0.133079 2.359151
-1.533800 -2.141925 6.099664
0.071366 0.305938 2.989724
-0.097665 0.123542 0.714501
-0.395633 0.499306 5.361187
-0.071009 -0.028745 3.891334
-0.681422 1.195939 6.003023
0.444100 0.558399 5.322685
-0.759904 1.278796 5.761447
-0.972023 2.407927 6.649357
2.221581 0.040938 6.307500
-0.795174 -1.382185 5.854175
-0.156535 -0.065801 3.281295
-0.251564 0.471089 5.205878
-0.022432 -0.064272 4.565440
-0.849866 -1.529687 5.524519
-0.324225 -0.778681 5.356855
-0.127845 0.550292 5.213370
1.818453 -0.340210 5.847621
-0.244282 -0.012167 1.025120
2.515706 0.168781 6.225863
-0.050352 0.229135 4.462251
-1.516082 1.924122 5.992737
0.685249 0.016090 5.180353
-0.873831 -1.742765 5.950822
0.869979 0.318783 5.343921
-0.249585 0.065756 4.173978
-0.141370 0.152243 1.878533
-0.187600 -0.252545 3.923988
-1.051728 1.711171 6.125753
-0.617798 1.592740 5.761837
0.432537 0.307958 5.229647
1.202488 0.142292 5.790701
2.879400 0.078684 6.314926
-0.001693 0.196105 4.746391
-1.335306 2.801354 6.270992
0.737139 0.235295 5.690256
-0.003137 0.588944 5.153362
-1.008259 -1.965364 6.133853
-1.250876 2.382631 6.515132
-1.668808 2.453050 6.140133
-0.254817 0.281325 4.830733
-0.946505 2.123665 6.163534
-0.093168 0.028229 2.244958
-0.145459 0.293876 0.130585
-0.685217 -1.204605 5.700771
2.200146 0.220639 6.492588
0.795261 0.215834 5.070980
-0.043414 0.053065 0.214586
-1.414522 2.019968 5.808455
-0.415016 -0.514379 5.165092
-0.930244 -2.139365 6.420453
1.719719 0.083295 5.845301
-1.478935 -1.307699 6.056708
2.276490 -0.070129 5.980622
-1.124442 0.934302 5.901878
-1.415322 2.272805 6.507922
0.205117 0.034201 5.149249
-0.179345 0.078327 5.182510
-1.181043 2.223759 6.684381
-0.841045 2.081239 6.427418
3.091005 0.067413 6.484949
-0.111392 0.151311 2.615553
0.082003 0.286326 5.049371
0.044751 0.046980 -0.011617
0.322335 -0.511637 5.315433
-1.491433 -2.623173 6.229898
-1.129371 2.535416 6.194961
1.280663 -0.111447 5.783057
2.159961 0.361262 5.996208
-0.047119 0.301460 2.553763
-0.469104 0.486006 1.658876
-0.271820 0.254658 0.596310
1.690483 -0.032499 5.737285
-0.349351 0.615062 5.222191
0.327368 -0.064634 4.908907
-0.871490 -1.679223 5.968859
-0.766718 0.544796 5.787236
-0.840095 -0.743174 5.587918
-0.146012 -0.313692 1.742056
-0.420786 0.335090 0.975768
-0.816520 -1.597284 5.521830
-0.222169 0.267177 4.142352
1.099281 -0.057697 5.675533
-0.344742 -0.515298 5.408115
-0.378320 0.417871 5.468733
0.200598 0.383230 5.286443
-1.021153 -2.013215 5.984411
-0.957550 -1.118917 6.079548
-0.107365 -0.183850 2.134661
0.166365 -0.210996 4.979860
2.521730 0.074277 6.152568
-0.065979 -0.178726 5.433592
-0.046139 -0.170555 4.628932
-1.242439 1.816456 5.762621
-0.279733 0.602291 5.148572
2.047937 -0.386301 6.041544
-0.019201 -0.020339 2.305959
2.079122 0.167131 5.919136
-0.250617 0.279770 3.822125
-0.910966 -1.974712 6.340205
0.794450 0.065130 4.942742
-0.718423 -0.915866 5.902138
-0.253541 -0.323912 1.644272
-1.246957 2.152340 6.250337
-0.154068 -0.333874 5.085954
-0.087821 0.162972 5.077666
-0.022780 0.135300 3.834823
-1.465604 1.568705 6.054849
0.174520 0.097376 3.295584
0.903475 0.057121 5.075146
-1.458477 2.510158 6.242753
-0.399801 0.524103 5.578220
-0.113336 -0.229117 0.857555
2.485557 0.065794 6.372805
0.340943 -0.199735 4.713738
-1.551824 -2.388849 6.612046
2.625631 0.107434 6.148252
-1.258092 1.214724 6.124115
0.206411 0.102037 1.130505
0.273749 0.311592 3.647788
-1.266228 2.249137 6.165939
2.527757 0.142225 6.545017
-0.117713 0.120719 2.927025
-0.007921 -0.151658 5.017369
-0.052762 -0.099632 2.050208
-0.054973 -0.021820 5.291947
-0.780864 0.931131 5.861137
0.177793 0.049742 4.653956
1.961653 0.197725 6.172536
-0.027895 -0.154958 5.237816
-0.059724 -0.028275 4.446143
-0.354564 0.017303 0.259746
0.441574 -0.074809 2.640297
-0.368593 -0.574230 5.135582
2.585705 -0.023706 6.316394
-0.463422 -1.042440 5.629868
0.149013 -0.285065 3.420526
0.016919 -0.198762 2.409995
1.983113 -0.340361 5.828599
-1.486837 -2.423971 6.587357
1.853417 0.164532 5.762312
0.455948 0.378447 0.207735
-0.405433 0.096701 -0.042538
-1.525364 1.981131 6.259960
2.590899 0.312574 6.712209
-1.267741 2.553722 6.297058
-0.002844 0.053673 2.379950
-0.253866 -0.266824 2.625072
-1.144525 1.438990 6.012265
-1.070300 1.773254 6.018193
-0.715018 -0.559660 5.450041
-0.211586 0.561526 4.909210
0.324623 0.234206 4.401665
0.235578 0.354563 4.880156
-1.843637 -2.526854 6.632231
0.072483 -0.034818 4.535726
-0.992310 1.983871 6.191312
-0.389605 -0.971275 5.185350
1.133195 -0.006381 5.453051
-0.980400 -1.679948 6.084725
-0.334180 0.808854 5.422346
-0.519323 -0.818984 5.451069
-0.291714 0.227851 4.080071
-0.316417 -0.266809 3.656979
-1.255104 1.722456 5.994175
-0.689403 -2.082345 5.917212
0.106660 0.031874 3.067736
1.152206 -0.212586 5.637682
-0.269519 -0.070536 4.755670
-1.109917 -2.148525 6.213016
0.275953 0.305391 5.093255
0.690676 -0.233978 5.435982
1.606427 0.053213 5.691062
-0.369622 -0.115133 2.123710
-1.198735 -1.937491 6.396291
-0.273869 0.019018 0.859995
-0.146417 -0.055298 2.709993
0.074608 -0.124648 1.683919
1.118102 0.169420 6.079599
-0.193145 0.089013 1.086914
0.041215 0.232763 3.836812
-1.214115 2.072270 6.387644
0.050663 -0.188729 2.536986
-0.095579 0.031412 1.479953
-0.376445 -0.119247 4.699558
0.133498 0.425166 2.395091
-0.077454 -0.041663 3.679558
-1.089018 -2.042719 6.154017
-0.131080 -0.305109 5.242180
-1.534234 2.854763 6.170554
0.121658 0.242178 4.891373
0.178946 -0.183180 1.827358
-1.040503 1.484568 5.465907
-0.379139 0.026189 4.451789
0.257090 -0.003300 1.682188
-1.275708 2.080471 6.369210
2.303946 0.197874 5.843684
-0.084142 0.183214 4.861159
1.647798 0.030550 5.528909
-0.528084 1.701095 5.966492
-1.320181 -2.144471 6.612405
-0.413185 0.342514 5.140703
0.264066 0.047543 2.245312
-0.310412 -1.035061 5.691537
0.039667 0.276298 0.816443
0.133624 -0.106375 4.462173
-0.778222 -1.561336 5.780614
0.335043 -0.071466 5.185991
0.060530 0.104248 5.296583
0.322606 0.143783 4.416311
-0.502018 0.776219 5.161821
-0.453479 0.939122 5.585969
0.016409 -0.051554 3.636023
0.120806 -0.184672 2.355789
0.224468 -0.098752 1.878585
2.117194 0.053728 6.197951
-1.133293 -2.400044 6.480941
-0.146768 -0.209685 0.795297
0.752118 0.133608 5.363202
0.083751 -0.118056 1.487995
0.143715 -0.105023 0.489130
1.369614 -0.334319 5.849797
-0.982620 -1.206240 5.548007
-1.544850 -2.828819 6.425037
-0.446711 0.879719 5.287272
-1.044532 1.971291 6.207503
-0.371383 0.244617 5.103865
-0.226650 -0.223811 4.691144
-0.303391 -0.064482 5.050325
-0.796746 1.310229 5.773708
0.000377 0.766325 4.869619
-0.597470 1.123031 5.809380
-0.692622 0.960317 5.073745
-1.663000 -2.756961 6.406614
1.804282 -0.155615 5.656030
-0.693725 1.144086 5.417585
0.060740 -0.076682 0.430980
-0.148724 -0.076943 1.283142
2.156834 0.174620 6.462873
0.455589 -0.476935 5.375139
-0.369299 0.765704 5.833428
-1.408441 2.551245 5.999051
-0.417716 -0.383717 -0.332348
-0.377769 0.301729 5.272727
-1.083510 -2.324812 6.025837
-0.125848 -0.294075 3.870870
-1.326139 1.864433 6.590986
-0.218305 0.536960 5.401696
1.169620 -0.052569 5.542463
-0.331956 0.347621 4.032694
0.058487 -0.032389 4.588837
-0.131948 -0.468280 0.755133
2.889702 0.266173 6.842447
-1.581994 -2.389638 6.427451
-0.306022 -0.771318 5.045879
2.464116 -0.186763 6.082370
-0.617915 -1.046308 5.285778
-0.662450 -1.978926 5.751074
1.122856 -0.067590 5.316996
-1.209814 1.992653 6.423219
-0.105268 0.171516 4.587421
2.296784 -0.122542 6.012857
-0.055960 -0.361819 4.584958
-0.224168 -0.386636 1.923680
-0.532169 -0.327480 0.922513
-0.134580 0.281849 5.596574
-0.893668 2.020163 6.315537
2.078903 -0.068849 5.961858
-0.150228 0.636655 5.541388
-1.436192 2.722264 6.179799
0.585091 0.015359 5.725890
-1.188621 2.576467 6.478754
-0.531657 -0.762475 5.360949
1.747045 -0.139676 5.916708
0.047324 0.362020 0.031163
-0.257252 1.070935 5.417583
0.016014 0.079065 2.004223
-0.060648 0.247087 5.232451
1.249930 0.149069 5.433176
-1.403673 1.848625 6.404506
-0.868694 -0.928022 5.110279
-1.602507 -2.696160 6.508819
2.872770 -0.118435 6.470427
0.291126 -0.576073 5.110849
-0.110828 0.323381 2.720809
-1.741752 2.820998 6.642393
-0.621832 1.008099 5.633746
0.263242 0.129834 -0.065653
-0.035068 -0.055090 5.110346
-0.526931 0.133177 1.750348
-0.216483 0.808845 4.971239
0.293457 0.040726 3.485544
-0.130342 0.068918 4.027661
-1.593595 2.187074 6.433415
-0.661471 1.663106 5.406154
2.830677 0.094030 6.092280
2.293483 -0.062301 6.385260
-0.059768 -0.088125 3.339276
-0.094790 -0.148276 1.317441
0.064250 0.069971 4.572722
-0.718816 1.530950 6.132306
-1.229580 2.445457 6.655569
0.251803 -0.523713 4.451174
-0.067750 0.173109 3.171395
2.860041 0.117745 6.243856
-0.866536 1.505761 6.064667
-0.823913 -1.171984 5.558957
-1.443437 -2.458143 6.372035
0.037384 -0.070937 3.937102
-0.105856 -0.223101 4.806004
-0.407270 -0.113709 4.833265
0.158248 -0.188965 3.522040
-1.689911 -2.584010 6.706705
0.526351 0.152322 2.549675
-0.098992 0.042162 3.800105
-0.698272 -2.194556 6.258350
-1.037623 -1.834590 5.865419
-1.237687 2.237143 6.415771
-0.009281 0.005823 4.618625
-0.371865 0.532315 5.225124
-0.756462 1.332887 5.822613
0.761734 0.153998 5.751466
0.551822 -0.132429 5.354776
0.129747 -0.133131 -0.119947
0.222305 0.050752 4.738585
-0.629248 -1.815387 5.455338
0.310238 -0.147292 2.716513
0.177957 0.114064 4.966325
-1.430756 1.699045 6.150034
-1.020235 -1.233929 5.525500
0.120216 0.243510 2.761125
0.796954 -0.295498 5.153275
2.528350 0.141294 6.413554
-0.349945 -0.498717 5.346220
-1.309809 2.084136 6.260480
-0.077001 0.168963 0.213314
0.468140 -0.140678 1.921493
-0.269931 0.127075 5.123014
2.177764 -0.003086 5.886321
2.698072 -0.275308 6.644683
0.513498 -0.112410 3.962811
1.304702 0.073018 4.945795
0.095386 -0.359140 3.262126
-0.288413 0.046723 -0.075375
2.318308 0.169225 6.094880
-0.765708 -0.879169 5.259552
1.466255 0.008125 5.475793
-0.380047 -0.782035 5.462968
0.028505 -0.232056 1.302739
-1.451157 -2.788527 6.417710
0.134619 0.107175 5.236741
-1.500522 -2.532466 6.422111
-0.005590 0.272955 2.258340
-0.937923 2.157613 6.158481
3.134190 0.121218 6.512932
0.184244 0.501827 1.783734
-0.735802 1.144456 5.455489
-0.771809 1.661664 5.644718
0.026169 -0.213195 2.901782
-1.082400 -2.592436 6.631045
-0.350296 0.124186 3.728353
-0.719547 -1.103501 6.042605
-0.448662 -0.716024 5.575272
2.352642 0.096234 5.985484
1.112689 -0.108811 5.488176
-0.468787 1.489398 5.728980
